-0.546244 0.054389 0.180529
-0.560960 0.049754 0.197589
-0.528263 0.065402 0.191919
-0.503770 0.067837 0.168089
-0.465797 0.077992 0.164309
-0.488635 0.080433 0.236929
-0.645898 0.016691 0.277279
-0.648004 0.010310 0.345689
-0.622115 0.007728 0.341090
-0.600429 0.024363 0.253049
-0.579989 0.037337 0.263110
-0.596978 0.016199 0.305449
-0.581526 0.007047 0.333419
-0.657450 0.005934 0.368299
-0.624481 -0.006757 0.394609
-0.664007 -0.016006 0.433549
-0.605127 -0.007177 0.376299
-0.568678 -0.002071 0.351019
-0.600902 -0.025247 0.438789
-0.554500 0.051303 0.264529
-0.538936 0.052492 0.279689
-0.546541 0.024758 0.323619
-0.530718 0.037724 0.314580
-0.488458 0.065648 0.286959
-0.500693 0.055248 0.303259
-0.468916 0.066295 0.297909
-0.541576 -0.024955 0.384209
-0.552000 -0.027425 0.433129
-0.500669 -0.034135 0.404110
-0.475129 -0.033790 0.429820
-0.544551 -0.000221 0.354939
-0.530227 0.015033 0.344839
-0.493261 -0.021419 0.385069
-0.468057 0.008906 0.361789
-0.717874 -0.360749 0.467949
-0.688272 -0.365695 0.498969
-0.637652 -0.417258 0.479099
-0.664177 -0.380681 0.506319
-0.665266 -0.367344 0.522530
-0.627353 -0.400623 0.528999
-0.598484 -0.445599 0.470429
-0.592954 -0.445380 0.498329
-0.567763 -0.459069 0.503239
-0.579792 -0.446559 0.517839
-0.608317 -0.385030 0.557709
-0.612574 -0.359822 0.569670
-0.565905 -0.399367 0.573369
-0.543909 -0.477253 0.466529
-0.548997 -0.469728 0.505609
-0.543314 -0.465500 0.523989
-0.491041 -0.506620 0.473939
-0.490214 -0.495505 0.514949
-0.483770 -0.484226 0.536869
-0.557486 -0.446037 0.539809
-0.558022 -0.417006 0.566299
-0.513219 -0.417646 0.579569
-0.528117 -0.364600 0.600239
-0.508678 -0.434894 0.570799
-0.475668 -0.446152 0.572550
-0.491397 -0.387350 0.599069
-0.474756 -0.371208 0.605539
-0.808140 -0.272005 0.467079
-0.786904 -0.268243 0.493480
-0.839988 -0.156435 0.471609
-0.822904 -0.221311 0.486439
-0.833585 -0.179703 0.479399
-0.825269 -0.148084 0.489279
-0.807348 -0.184069 0.511309
-0.791750 -0.135325 0.520489
-0.776999 -0.311127 0.471929
-0.743912 -0.326103 0.488309
-0.785525 -0.249172 0.507589
-0.738301 -0.278726 0.528220
-0.724822 -0.339495 0.491739
-0.719105 -0.304741 0.527109
-0.697999 -0.304639 0.542530
-0.716577 -0.281233 0.542039
-0.770659 -0.232527 0.527779
-0.757356 -0.199456 0.546609
-0.738014 -0.212558 0.553670
-0.762073 -0.151701 0.543500
-0.748894 -0.134112 0.542209
-0.714092 -0.237300 0.560999
-0.696003 -0.259249 0.564829
-0.695246 -0.235894 0.569879
-0.706406 -0.182281 0.568139
-0.818056 -0.113359 0.472069
-0.789157 -0.083556 0.458749
-0.807689 -0.132149 0.502080
-0.766581 -0.062879 0.457980
-0.778879 -0.112379 0.512399
-0.753975 -0.100866 0.516789
-0.717677 -0.051694 0.480409
-0.697388 -0.069635 0.508859
-0.676319 -0.059740 0.501529
-0.709867 -0.102039 0.535289
-0.694783 -0.119734 0.550270
-0.658718 -0.335513 0.551670
-0.633067 -0.343621 0.563569
-0.668525 -0.275728 0.573309
-0.623840 -0.283709 0.590229
-0.616007 -0.340675 0.575900
-0.587276 -0.334747 0.592329
-0.565465 -0.302330 0.604179
-0.582036 -0.250465 0.607119
-0.637489 -0.190031 0.589719
-0.654334 -0.179959 0.584279
-0.632492 -0.160342 0.587519
-0.612376 -0.190522 0.598989
-0.586391 -0.199701 0.607389
-0.610561 -0.150117 0.590739
-0.540602 -0.344210 0.603759
-0.529271 -0.324174 0.610049
-0.537154 -0.253179 0.616329
-0.506360 -0.339175 0.612869
-0.454016 -0.331845 0.616370
-0.500940 -0.277310 0.619739
-0.477567 -0.238762 0.625769
-0.557312 -0.189876 0.613789
-0.564882 -0.134475 0.603729
-0.535387 -0.224281 0.619459
-0.521202 -0.158961 0.617349
-0.504968 -0.242212 0.622589
-0.466591 -0.210194 0.627949
-0.480694 -0.182806 0.625499
-0.626572 -0.039709 0.479159
-0.652472 -0.102405 0.550409
-0.644756 -0.076036 0.527589
-0.594695 -0.035030 0.473410
-0.572885 -0.032527 0.481459
-0.596401 -0.054811 0.517179
-0.579558 -0.072900 0.548889
-0.625745 -0.107193 0.563929
-0.602844 -0.101641 0.567360
-0.567157 -0.113139 0.593239
-0.522893 -0.026615 0.484419
-0.561240 -0.038306 0.510420
-0.554821 -0.078081 0.563199
-0.501261 -0.028587 0.471549
-0.477599 -0.034802 0.458229
-0.490667 -0.034848 0.520699
-0.476038 -0.058025 0.562010
-0.547130 -0.117098 0.602519
-0.521443 -0.127669 0.611349
-0.528219 -0.070301 0.565610
-0.509035 -0.094703 0.590709
-0.474633 -0.129744 0.613979
-0.442418 -0.571271 0.180669
-0.418498 -0.573710 0.187629
-0.383962 -0.573328 0.224739
-0.425426 -0.521466 0.028909
-0.404492 -0.534165 0.055450
-0.443824 -0.559042 0.118519
-0.422470 -0.561055 0.120699
-0.368574 -0.532620 0.028529
-0.380401 -0.554912 0.092739
-0.369879 -0.558678 0.118749
-0.408758 -0.566978 0.140469
-0.380075 -0.567131 0.170620
-0.361813 -0.559899 0.165079
-0.356807 -0.569944 0.207949
-0.342308 -0.541943 0.047789
-0.311021 -0.557466 0.052219
-0.321125 -0.533859 0.090079
-0.288524 -0.567441 0.034969
-0.264095 -0.546766 0.060129
-0.281134 -0.534509 0.094299
-0.274784 -0.535233 0.129350
-0.336717 -0.556830 0.161830
-0.315026 -0.550477 0.155499
-0.330419 -0.562960 0.207519
-0.312103 -0.555548 0.225539
-0.276847 -0.533892 0.157109
-0.281031 -0.544025 0.191739
-0.247409 -0.522573 0.195249
-0.429406 -0.571369 0.249289
-0.454242 -0.559868 0.271020
-0.409629 -0.569703 0.263370
-0.448668 -0.540827 0.321089
-0.419223 -0.549101 0.331449
-0.364996 -0.569236 0.265829
-0.367912 -0.565725 0.305509
-0.453731 -0.519626 0.356749
-0.417114 -0.540469 0.359109
-0.423552 -0.535037 0.402459
-0.429863 -0.532776 0.424999
-0.423332 -0.529782 0.454230
-0.353740 -0.551142 0.351979
-0.375264 -0.535426 0.407089
-0.328404 -0.561418 0.246540
-0.323489 -0.562975 0.292059
-0.336854 -0.561000 0.316979
-0.301459 -0.547423 0.344429
-0.261195 -0.541422 0.263800
-0.268157 -0.545414 0.291689
-0.240888 -0.531737 0.291339
-0.338811 -0.546136 0.374000
-0.313426 -0.542047 0.372959
-0.334109 -0.522485 0.446240
-0.292539 -0.511817 0.450889
-0.281705 -0.527500 0.396459
-0.289522 -0.519774 0.429539
-0.268576 -0.508528 0.445999
-0.224192 -0.554357 0.032719
-0.201267 -0.548711 0.049979
-0.230314 -0.518964 0.099309
-0.214174 -0.509481 0.113279
-0.176828 -0.538280 0.051940
-0.134627 -0.520941 0.040880
-0.167946 -0.521125 0.089869
-0.143979 -0.516182 0.096569
-0.236865 -0.515613 0.146709
-0.209518 -0.497481 0.173780
-0.229903 -0.505343 0.187039
-0.190808 -0.481013 0.190429
-0.169499 -0.509892 0.136529
-0.147304 -0.477417 0.161679
-0.173404 -0.473138 0.201609
-0.151616 -0.482176 0.209579
-0.103098 -0.527434 0.029339
-0.089719 -0.506818 0.043159
-0.107987 -0.487523 0.083849
-0.081332 -0.488559 0.084519
-0.070349 -0.509804 0.026579
-0.044902 -0.500219 0.033149
-0.032836 -0.479260 0.072570
-0.042690 -0.472245 0.112549
-0.123317 -0.483801 0.133629
-0.096477 -0.465368 0.148879
-0.076189 -0.484228 0.180479
-0.097114 -0.479047 0.189829
-0.047074 -0.504840 0.177059
-0.065860 -0.520914 0.231909
-0.057945 -0.504305 0.194839
-0.037504 -0.511377 0.208409
-0.216825 -0.523434 0.266219
-0.189631 -0.540984 0.285199
-0.233106 -0.532753 0.318760
-0.197782 -0.534377 0.333670
-0.154372 -0.538044 0.258110
-0.131272 -0.533368 0.252969
-0.144075 -0.540548 0.294669
-0.164261 -0.532144 0.311439
-0.154805 -0.511771 0.337359
-0.199812 -0.525693 0.357419
-0.232836 -0.513205 0.416789
-0.207956 -0.497926 0.415099
-0.178776 -0.513222 0.354829
-0.157598 -0.491602 0.366150
-0.139333 -0.474760 0.376679
-0.155143 -0.455870 0.440839
-0.117941 -0.543648 0.291509
-0.089362 -0.542688 0.286329
-0.112758 -0.533940 0.309699
-0.114370 -0.502867 0.342120
-0.057888 -0.535484 0.276349
-0.037568 -0.523911 0.263579
-0.068775 -0.523317 0.317040
-0.051653 -0.479294 0.336409
-0.027078 -0.460146 0.348099
-0.115924 -0.468407 0.374379
-0.056811 -0.459997 0.361150
-0.128316 -0.458204 0.393629
-0.077114 -0.448807 0.391029
-0.104316 -0.444719 0.434979
-0.078273 -0.445946 0.419049
-0.024853 -0.454522 0.384080
-0.034863 -0.459389 0.415069
-0.449012 0.064237 0.119090
-0.417279 0.071542 0.120819
-0.437262 0.077782 0.154949
-0.447673 0.080231 0.262189
-0.453591 0.060183 0.316199
-0.434339 0.061282 0.320160
-0.411229 0.048140 0.340109
-0.365001 0.081742 0.256449
-0.394129 0.039796 0.348240
-0.361288 0.060009 0.318339
-0.440583 -0.041020 0.436639
-0.397314 -0.027492 0.383310
-0.348623 -0.026595 0.391859
-0.401914 -0.046776 0.430229
-0.373708 -0.054215 0.433650
-0.445490 -0.008731 0.371879
-0.417734 -0.009587 0.370349
-0.425659 0.032720 0.351950
-0.358670 0.001282 0.375899
-0.348892 0.026685 0.359449
-0.295668 0.071987 0.251769
-0.338031 0.059218 0.311649
-0.314395 0.048763 0.327369
-0.278310 0.059556 0.290939
-0.246734 0.070620 0.270869
-0.289940 0.044186 0.329730
-0.263170 0.040439 0.327149
-0.325105 -0.054625 0.432769
-0.296569 -0.050425 0.427159
-0.264306 -0.065541 0.451999
-0.266645 -0.051338 0.425859
-0.314374 0.020562 0.362199
-0.299508 0.000559 0.378139
-0.249295 -0.008765 0.372860
-0.232884 0.086483 0.269299
-0.223606 -0.000127 0.341549
-0.184818 0.013758 0.329049
-0.209111 0.056877 0.302459
-0.189531 0.072267 0.311500
-0.146127 0.018332 0.341610
-0.153898 0.071764 0.328549
-0.220049 -0.043127 0.400619
-0.223862 -0.056161 0.418059
-0.194887 -0.056079 0.400070
-0.173465 -0.037264 0.357169
-0.160749 -0.070500 0.399779
-0.142486 -0.070076 0.385680
-0.170951 -0.079591 0.426659
-0.223769 -0.013535 0.357920
-0.201042 -0.022450 0.356769
-0.129252 -0.018939 0.355460
-0.121087 0.054935 0.344309
-0.125839 -0.060580 0.368740
-0.107407 -0.052303 0.375769
-0.106798 -0.051440 0.402089
-0.094272 -0.059630 0.446009
-0.048004 -0.022562 0.387960
-0.075093 -0.048826 0.437699
-0.037794 -0.034564 0.433199
-0.117901 0.019102 0.354449
-0.101475 0.036216 0.356159
-0.088064 0.083623 0.356439
-0.035074 0.004221 0.380519
-0.037948 0.036701 0.370570
-0.030517 0.077423 0.364309
-0.404139 -0.527712 0.466970
-0.436693 -0.516649 0.496970
-0.441021 -0.497095 0.533569
-0.417595 -0.501198 0.525779
-0.414070 -0.470779 0.557819
-0.395875 -0.519409 0.489889
-0.376544 -0.512349 0.493859
-0.387851 -0.489547 0.532549
-0.366454 -0.487586 0.526839
-0.451477 -0.461687 0.566760
-0.443695 -0.421075 0.589949
-0.439782 -0.393113 0.598630
-0.419235 -0.400067 0.593479
-0.426600 -0.369156 0.604389
-0.390351 -0.439506 0.572589
-0.385989 -0.363634 0.598879
-0.347001 -0.378993 0.585640
-0.340952 -0.504229 0.495609
-0.316866 -0.506212 0.477189
-0.324259 -0.482632 0.520119
-0.320467 -0.467166 0.537059
-0.269147 -0.506441 0.488749
-0.243258 -0.508044 0.492019
-0.260055 -0.498648 0.533420
-0.344268 -0.441070 0.559390
-0.289957 -0.436943 0.558019
-0.334694 -0.420750 0.567069
-0.330685 -0.352606 0.588529
-0.285280 -0.408161 0.570139
-0.237629 -0.449209 0.575149
-0.261739 -0.393536 0.576840
-0.225664 -0.492538 0.475509
-0.205124 -0.479282 0.458299
-0.192654 -0.500513 0.499529
-0.223387 -0.511850 0.512539
-0.214667 -0.509183 0.542279
-0.170083 -0.497209 0.500799
-0.132944 -0.483339 0.493719
-0.149541 -0.530506 0.524229
-0.145003 -0.504273 0.506469
-0.227357 -0.475830 0.568159
-0.154361 -0.522947 0.567849
-0.161928 -0.502622 0.581119
-0.132413 -0.499514 0.586950
-0.222113 -0.417941 0.585959
-0.201384 -0.414657 0.591109
-0.213171 -0.359417 0.574109
-0.192924 -0.372933 0.582099
-0.158334 -0.411736 0.596879
-0.175471 -0.385382 0.588649
-0.145504 -0.365079 0.577249
-0.123319 -0.506182 0.502940
-0.104463 -0.472216 0.475229
-0.109500 -0.521403 0.506759
-0.089516 -0.537990 0.513020
-0.051782 -0.534422 0.492979
-0.043419 -0.518788 0.479600
-0.064735 -0.514710 0.488929
-0.046437 -0.557922 0.520359
-0.026297 -0.547248 0.540680
-0.073195 -0.362715 0.555169
-0.026032 -0.389199 0.549379
-0.109342 -0.515748 0.578549
-0.106701 -0.467064 0.596979
-0.068152 -0.495525 0.585919
-0.056339 -0.457923 0.588989
-0.030746 -0.475156 0.579199
-0.082850 -0.450762 0.595199
-0.090314 -0.404055 0.585460
-0.067869 -0.429299 0.587789
-0.029735 -0.454393 0.578449
-0.055689 -0.387207 0.563889
-0.437002 -0.297205 0.622680
-0.418681 -0.282053 0.622579
-0.391159 -0.344058 0.605799
-0.371774 -0.307880 0.613769
-0.386516 -0.288675 0.620109
-0.363299 -0.253887 0.617799
-0.433908 -0.185582 0.625799
-0.448903 -0.168817 0.624139
-0.409356 -0.177801 0.621729
-0.355623 -0.211972 0.615089
-0.347485 -0.148813 0.603849
-0.376439 -0.188559 0.618789
-0.344434 -0.337419 0.595709
-0.328122 -0.324956 0.595210
-0.339965 -0.271460 0.614379
-0.317804 -0.246602 0.609879
-0.259955 -0.335201 0.574439
-0.285450 -0.295947 0.597499
-0.242301 -0.288266 0.590499
-0.253314 -0.243757 0.620969
-0.328988 -0.203498 0.607499
-0.342876 -0.170996 0.609819
-0.324131 -0.178968 0.603669
-0.295908 -0.144977 0.592369
-0.289169 -0.212097 0.612239
-0.274984 -0.157899 0.601569
-0.251928 -0.222219 0.632949
-0.244088 -0.179688 0.640089
-0.449402 -0.031903 0.496529
-0.426453 -0.034089 0.488099
-0.450185 -0.043870 0.537119
-0.402431 -0.050079 0.542839
-0.376979 -0.039543 0.498189
-0.385874 -0.065125 0.563950
-0.363255 -0.068346 0.562819
-0.448277 -0.089533 0.592869
-0.425497 -0.098114 0.598010
-0.409475 -0.065341 0.566179
-0.372374 -0.107603 0.598389
-0.364824 -0.131798 0.605819
-0.344723 -0.048540 0.501880
-0.319775 -0.085646 0.567329
-0.327829 -0.063673 0.534799
-0.299422 -0.069197 0.523029
-0.282947 -0.064003 0.472509
-0.270239 -0.082751 0.524749
-0.276756 -0.098808 0.565509
-0.242702 -0.120529 0.562900
-0.345547 -0.098446 0.586139
-0.298863 -0.103674 0.578849
-0.248149 -0.121735 0.592689
-0.146803 -0.138704 0.538859
-0.236556 -0.320670 0.572049
-0.194868 -0.304442 0.584169
-0.192550 -0.290012 0.609709
-0.213917 -0.245674 0.646949
-0.161763 -0.346106 0.567879
-0.167235 -0.298874 0.599989
-0.160989 -0.279831 0.627479
-0.140109 -0.284728 0.618149
-0.235523 -0.234418 0.641139
-0.198912 -0.232254 0.660729
-0.229062 -0.153346 0.652189
-0.155452 -0.237319 0.671339
-0.098640 -0.345709 0.551419
-0.089149 -0.307011 0.561519
-0.030421 -0.311995 0.500589
-0.057290 -0.315851 0.528869
-0.032273 -0.300211 0.523729
-0.115400 -0.136675 0.546079
-0.111331 -0.287151 0.614199
-0.128146 -0.272991 0.639639
-0.083643 -0.274260 0.635249
-0.066707 -0.296803 0.575069
-0.066039 -0.277634 0.618659
-0.032681 -0.270371 0.616499
-0.029125 -0.246914 0.652329
-0.227098 -0.096863 0.503799
-0.207975 -0.104308 0.508650
-0.212860 -0.124581 0.536519
-0.190958 -0.133803 0.546470
-0.159555 -0.083791 0.465879
-0.136385 -0.114770 0.500189
-0.141245 -0.127516 0.516529
-0.206554 -0.124694 0.571389
-0.204974 -0.112085 0.604839
-0.166523 -0.132024 0.577759
-0.136912 -0.132192 0.582219
-0.159946 -0.091610 0.641029
-0.150592 -0.101938 0.622219
-0.119715 -0.091898 0.478759
-0.080198 -0.087602 0.477669
-0.076585 -0.067695 0.458929
-0.081213 -0.116296 0.518549
-0.066357 -0.102201 0.497609
-0.045138 -0.069866 0.469249
-0.054653 -0.118338 0.555569
-0.028708 -0.104716 0.558579
-0.086740 -0.129709 0.575640
-0.081202 -0.085476 0.625179
-0.081559 -0.064199 0.657689
-0.055613 -0.108565 0.595619
-0.042154 -0.110920 0.576690
-0.041765 -0.054585 0.650659
-0.184139 -0.184753 0.685019
-0.175961 -0.226790 0.671650
-0.137087 -0.217542 0.688839
-0.150232 -0.154715 0.700100
-0.106358 -0.239892 0.674269
-0.089992 -0.229222 0.686169
-0.112665 -0.179110 0.704089
-0.076282 -0.138259 0.711749
-0.051094 -0.216865 0.693859
-0.028748 -0.229681 0.676449
-0.058585 -0.146603 0.711179
-0.032590 -0.148100 0.709849
-0.161230 -0.130631 0.693159
-0.142412 -0.079453 0.683079
-0.082894 -0.083948 0.696079
-0.111659 -0.069550 0.674759
-0.069394 -0.114380 0.709750
-0.047602 -0.081498 0.699859
-0.066854 -0.072440 0.695049
-0.023307 -0.076490 0.696070
-0.006521 -0.475589 0.025139
0.006821 -0.461620 0.063489
-0.006874 -0.499599 0.126119
0.015159 -0.490975 0.104170
0.060354 -0.491713 0.129239
0.073126 -0.490216 0.110419
0.039076 -0.453463 0.021229
0.078011 -0.436579 0.045330
0.070187 -0.455377 0.067239
0.004738 -0.495388 0.167549
-0.008508 -0.486195 0.209229
-0.001436 -0.473435 0.237099
0.014753 -0.465569 0.216799
0.073700 -0.480292 0.147489
0.088940 -0.469101 0.228029
0.049372 -0.455813 0.210399
0.107394 -0.467001 0.086059
0.124126 -0.472434 0.123999
0.130295 -0.415617 0.038130
0.153766 -0.418086 0.054079
0.167586 -0.393068 0.028130
0.149155 -0.439320 0.075119
0.168726 -0.455707 0.130929
0.186526 -0.433646 0.087390
0.089180 -0.471608 0.156289
0.096042 -0.462850 0.205999
0.127716 -0.467842 0.193099
0.176445 -0.463311 0.160029
0.154786 -0.517696 0.218939
0.190236 -0.543026 0.235589
0.147386 -0.486568 0.204779
0.127846 -0.457372 0.145590
0.149155 -0.454635 0.150070
0.185976 -0.355826 0.194819
-0.011016 -0.483867 0.256869
-0.020931 -0.484263 0.295889
0.076135 -0.467376 0.243949
0.076393 -0.512558 0.307470
0.036913 -0.465482 0.315839
0.035122 -0.473934 0.339649
0.021110 -0.454255 0.281159
0.010168 -0.458090 0.337159
0.055477 -0.458826 0.260439
0.006669 -0.473933 0.387559
0.019520 -0.488209 0.392479
0.016774 -0.530123 0.442010
-0.010614 -0.495689 0.438279
0.067325 -0.522790 0.353869
0.047049 -0.507015 0.373849
0.052806 -0.543960 0.404309
0.036413 -0.555341 0.441099
0.082767 -0.558361 0.431909
0.085430 -0.367836 0.376119
0.056371 -0.372503 0.457569
0.080749 -0.387833 0.430919
0.090701 -0.522536 0.290700
0.131916 -0.535220 0.250009
0.104885 -0.545478 0.299450
0.112509 -0.558626 0.340640
0.146576 -0.552224 0.260289
0.172336 -0.551425 0.251449
0.146376 -0.559688 0.305270
0.182616 -0.537275 0.308739
0.186805 -0.467871 0.313769
0.174496 -0.473515 0.332830
0.139696 -0.417764 0.344619
0.113809 -0.376929 0.314649
0.125995 -0.397956 0.344499
0.194426 -0.441340 0.277189
0.148795 -0.383647 0.250339
0.142266 -0.406480 0.297229
0.153986 -0.434185 0.330149
0.172866 -0.447567 0.312719
0.105122 -0.555984 0.365350
0.131325 -0.551539 0.355799
0.127466 -0.536212 0.393989
0.112864 -0.546031 0.411339
0.108876 -0.525764 0.444360
0.128496 -0.482806 0.429889
0.149136 -0.542275 0.348279
0.161056 -0.466644 0.352159
0.141576 -0.485113 0.402129
0.109143 -0.384916 0.363290
0.112626 -0.400993 0.396339
0.134585 -0.441101 0.419049
0.116308 -0.424177 0.432900
0.141535 -0.433018 0.360189
0.139865 -0.437827 0.396839
0.218006 -0.369188 0.065359
0.202326 -0.418149 0.082879
0.233856 -0.445840 0.127569
0.237146 -0.392939 0.100309
0.248515 -0.409838 0.112240
0.222816 -0.481120 0.166799
0.216166 -0.529573 0.228929
0.231326 -0.513118 0.200059
0.275176 -0.468092 0.174210
0.272586 -0.460034 0.234809
0.289865 -0.461486 0.194809
0.225396 -0.460692 0.148410
0.243676 -0.379951 0.179470
0.235975 -0.404624 0.217990
0.252356 -0.399085 0.194279
0.263445 -0.402621 0.138569
0.276676 -0.424172 0.156599
0.264495 -0.423212 0.214009
0.277335 -0.441598 0.217529
0.205406 -0.459464 0.286089
0.245455 -0.481261 0.264089
0.203676 -0.514765 0.296990
0.266146 -0.475705 0.243889
0.238366 -0.439570 0.251899
0.257836 -0.439830 0.238729
0.121477 -0.316806 0.232819
0.187775 -0.324382 0.175139
0.136306 -0.333857 0.212869
0.160486 -0.308397 0.199509
0.179725 -0.303713 0.184189
0.179146 -0.289195 0.201639
0.189956 -0.244045 0.215200
0.032627 -0.283433 0.318569
0.067392 -0.302500 0.280610
0.076922 -0.268939 0.293899
0.036694 -0.312827 0.340369
0.061782 -0.320957 0.302859
0.046500 -0.265804 0.310299
0.039333 -0.237934 0.334379
0.064251 -0.215665 0.328469
0.021802 -0.305432 0.358200
0.000482 -0.269507 0.387600
0.007334 -0.265958 0.360209
0.015413 -0.316648 0.419650
0.002250 -0.294226 0.404249
-0.005352 -0.284880 0.428939
0.029890 -0.243981 0.452769
0.065492 -0.346605 0.378129
0.062310 -0.344598 0.404219
0.013083 -0.216051 0.373049
0.027521 -0.205094 0.392539
0.041542 -0.207862 0.342219
0.058701 -0.176138 0.375079
0.046900 -0.195119 0.404340
0.048873 -0.229057 0.452669
0.063616 -0.179391 0.399819
0.100006 -0.309966 0.250809
0.088072 -0.274686 0.275029
0.119446 -0.287136 0.243289
0.112049 -0.239302 0.283829
0.086167 -0.205941 0.317999
0.095215 -0.181174 0.336709
0.136906 -0.238875 0.260129
0.141456 -0.203066 0.291289
0.191446 -0.212319 0.246689
0.175706 -0.188774 0.265389
0.138355 -0.161636 0.316860
0.176545 -0.151960 0.308049
0.099774 -0.146754 0.368099
0.089414 -0.169963 0.411509
0.102703 -0.182929 0.436649
-0.019841 -0.012754 0.387459
0.027080 -0.005156 0.386269
0.004005 0.076756 0.364669
-0.010480 -0.017529 0.405590
-0.004672 -0.011146 0.431289
0.052266 0.009579 0.381929
0.067043 0.029756 0.382219
0.046934 0.035767 0.375570
0.075491 0.076145 0.382029
0.038611 0.006189 0.439659
0.158316 -0.127731 0.325499
0.176826 -0.093332 0.344210
0.120155 -0.123952 0.380369
0.134865 -0.130971 0.419679
0.146186 -0.082146 0.373279
0.160496 -0.070903 0.356880
0.150626 -0.027319 0.402309
0.176086 -0.056820 0.356779
0.155575 -0.090703 0.412409
0.164775 -0.123842 0.446419
0.158635 -0.051724 0.407489
0.173026 -0.049050 0.429190
0.192146 -0.033862 0.449529
0.119178 0.001599 0.397909
0.093372 0.061296 0.389399
0.090273 0.009799 0.427469
0.139165 -0.006220 0.405409
0.159245 -0.011978 0.387489
0.184175 0.012194 0.393650
0.163326 0.000725 0.447539
0.177866 -0.021576 0.443159
0.178286 0.050133 0.405699
0.243946 -0.345970 0.099679
0.237365 -0.329451 0.120009
0.274276 -0.327165 0.039069
0.290585 -0.314288 0.043329
0.254106 -0.297776 0.113529
0.282665 -0.286081 0.102509
0.210946 -0.334634 0.161030
0.221156 -0.322246 0.140879
0.227586 -0.278001 0.152349
0.239566 -0.259790 0.166459
0.215486 -0.264083 0.180499
0.274476 -0.263266 0.129959
0.203856 -0.225001 0.232770
0.251346 -0.228952 0.212349
0.273966 -0.233081 0.191729
0.298606 -0.221031 0.189409
0.313246 -0.307156 0.051279
0.343235 -0.300400 0.024009
0.311996 -0.254026 0.127960
0.339866 -0.257131 0.108499
0.383785 -0.264430 0.031499
0.403005 -0.261290 0.034009
0.367066 -0.264148 0.082909
0.355356 -0.236695 0.121239
0.402426 -0.236288 0.079199
0.403146 -0.224533 0.111010
0.316056 -0.208895 0.184930
0.343536 -0.216799 0.149949
0.356546 -0.196383 0.165039
0.314656 -0.172207 0.220460
0.350486 -0.162004 0.209419
0.382215 -0.191842 0.164049
0.378976 -0.180449 0.181470
0.375336 -0.143209 0.217709
0.401056 -0.141215 0.210769
0.221176 -0.196971 0.251869
0.220506 -0.180732 0.269379
0.242606 -0.183544 0.263009
0.270486 -0.180055 0.255369
0.295456 -0.174231 0.242379
0.319666 -0.133555 0.255239
0.213296 -0.079912 0.341339
0.245106 -0.123081 0.295979
0.264926 -0.120217 0.286669
0.261245 -0.090893 0.324849
0.293176 -0.077717 0.313879
0.281605 -0.049585 0.343749
0.238025 -0.043794 0.356000
0.233796 -0.000429 0.377629
0.246166 0.020667 0.388229
0.196516 0.028984 0.400269
0.198626 0.073406 0.406110
0.254865 0.002323 0.372329
0.265186 0.022195 0.376649
0.266006 0.061664 0.392949
0.281996 0.074483 0.385719
0.320996 -0.095536 0.276749
0.361855 -0.123703 0.242510
0.354675 -0.104718 0.263310
0.321676 -0.033436 0.330839
0.347926 -0.043574 0.319059
0.384346 -0.105152 0.255299
0.410966 -0.069734 0.289949
0.409325 -0.053658 0.300939
0.321216 -0.003020 0.340059
0.355846 0.030411 0.341649
0.393236 -0.015536 0.321840
0.404626 0.035984 0.323449
0.411256 0.076861 0.329210
0.318325 0.051636 0.356359
0.340736 0.044847 0.347380
-0.010330 -0.551126 0.481929
-0.014971 -0.560268 0.501809
0.010062 -0.556448 0.486999
0.002724 -0.544730 0.532239
0.025470 -0.545937 0.514419
0.019188 -0.510086 0.545559
0.054442 -0.559464 0.462159
0.076229 -0.551740 0.458969
0.072878 -0.463716 0.507929
0.061106 -0.516444 0.509170
0.056545 -0.468220 0.522790
0.010835 -0.371214 0.508009
-0.015240 -0.413872 0.557499
0.013983 -0.459990 0.553359
-0.010211 -0.373906 0.528019
0.072649 -0.439612 0.500729
0.061967 -0.400616 0.480369
0.045788 -0.406255 0.504929
-0.006560 -0.474299 0.567659
0.103567 -0.515193 0.459999
0.101636 -0.470528 0.473460
0.084492 -0.423155 0.473729
-0.014245 -0.330850 0.489549
0.030445 -0.350960 0.462149
0.009579 -0.274926 0.482789
-0.011151 -0.287879 0.529509
0.009894 -0.274920 0.541189
0.035904 -0.259168 0.563149
0.041854 -0.258487 0.525439
0.050610 -0.239830 0.475439
0.076700 -0.239730 0.533719
-0.008573 -0.263406 0.613449
0.029995 -0.249536 0.609369
-0.000818 -0.238413 0.652389
0.049682 -0.244583 0.593849
0.072715 -0.232667 0.593809
0.044037 -0.229454 0.636489
0.057190 -0.189436 0.664179
0.084140 -0.165832 0.663469
0.111987 -0.204637 0.473410
0.132756 -0.188124 0.476959
0.138756 -0.166274 0.456309
0.116639 -0.214267 0.540969
0.159226 -0.149621 0.469029
0.182536 -0.142448 0.490499
0.162256 -0.175327 0.521039
0.180066 -0.161812 0.528419
0.114921 -0.211076 0.567949
0.136976 -0.187232 0.609309
0.109010 -0.181842 0.636789
0.133615 -0.165007 0.643929
0.172016 -0.169694 0.582069
0.154126 -0.156056 0.646370
0.174996 -0.145849 0.650319
-0.020658 -0.062301 0.477039
0.001873 -0.061522 0.486869
0.017559 -0.046029 0.488650
0.001583 -0.088098 0.550029
0.025300 -0.071517 0.541379
0.043487 -0.056323 0.533289
0.078017 -0.037377 0.549429
0.029563 0.000893 0.465099
0.051020 0.009532 0.476690
0.080363 0.021597 0.472029
0.077336 -0.014849 0.513229
-0.028995 -0.071281 0.621989
0.029043 -0.070136 0.572459
-0.016735 -0.043062 0.656469
0.012950 -0.032331 0.663349
0.049087 -0.041611 0.607109
0.069873 -0.027132 0.613189
0.037242 -0.027070 0.663669
0.056026 -0.021892 0.654129
0.195506 -0.116253 0.476079
0.125856 0.024135 0.470539
0.107112 0.002262 0.529139
0.117722 -0.008868 0.547069
0.160735 0.017467 0.466049
0.182596 0.007717 0.468149
0.161435 0.014848 0.549409
0.167066 0.033282 0.510119
0.191805 0.030708 0.538689
0.099320 -0.045189 0.661480
0.158116 -0.132162 0.663119
0.100114 -0.019281 0.600720
0.142146 -0.009129 0.591339
0.107432 -0.006718 0.645879
0.129966 -0.016920 0.664349
0.163886 -0.001484 0.580720
0.198546 0.002732 0.603630
0.160276 -0.003830 0.659369
0.181516 0.001293 0.655649
0.003584 -0.204865 0.683199
-0.006940 -0.185731 0.697659
0.025892 -0.177902 0.688059
0.035448 -0.136778 0.696930
0.065554 -0.164198 0.675629
0.004760 -0.081540 0.696769
0.013425 -0.117023 0.705159
-0.012542 -0.041265 0.676699
0.018002 -0.040164 0.681240
0.068713 -0.122121 0.687149
0.070020 -0.073104 0.680509
0.127436 -0.114399 0.677279
0.152706 -0.113463 0.674399
0.175386 -0.117123 0.670149
0.167656 -0.053558 0.674999
0.200325 -0.142120 0.511209
0.219826 -0.139949 0.593659
0.217046 -0.137888 0.636169
0.213946 -0.096168 0.474719
0.224756 -0.078350 0.475349
0.207146 -0.027996 0.464819
0.224205 -0.028808 0.480589
0.233615 -0.122451 0.522649
0.249386 -0.056022 0.499839
0.256406 -0.119330 0.561040
0.280025 -0.101913 0.563819
0.267296 -0.072211 0.517590
0.282335 -0.049992 0.530529
0.289775 -0.033187 0.546799
0.217756 0.020277 0.513339
0.245506 0.021172 0.554509
0.254466 -0.011496 0.519929
0.273966 -0.015437 0.536679
0.209746 -0.129064 0.652199
0.242825 -0.117310 0.649099
0.270416 -0.112910 0.586789
0.285076 -0.106664 0.599389
0.266276 -0.102443 0.656409
0.274235 -0.033616 0.668969
0.221796 0.005037 0.617069
0.203665 0.002790 0.633389
0.207116 0.002088 0.663669
0.242086 -0.020297 0.665599
0.291275 -0.011880 0.591969
0.250046 0.000725 0.656629
0.293516 -0.009366 0.645940
0.302765 -0.032004 0.575689
0.323416 -0.053356 0.608639
0.327066 -0.066037 0.630349
0.322636 -0.063715 0.656879
0.199895 -0.108641 0.671059
0.241656 -0.080965 0.680999
0.237915 -0.060777 0.680719
0.259666 -0.068616 0.681089
0.448966 -0.249617 0.040219
0.422536 -0.232121 0.068919
0.441375 -0.224093 0.084609
0.465496 -0.218991 0.088129
0.457595 -0.189155 0.115769
0.519916 -0.222414 0.055899
0.508416 -0.189549 0.096079
0.506296 -0.168488 0.111119
0.431886 -0.186510 0.159839
0.466556 -0.178210 0.132899
0.423256 -0.152289 0.197609
0.491886 -0.150761 0.132369
0.535065 -0.218580 0.034989
0.549576 -0.187798 0.064569
0.573956 -0.169218 0.065709
0.519816 -0.143305 0.119149
0.565246 -0.146571 0.096309
0.603986 -0.158330 0.070869
0.590206 -0.150049 0.084449
0.439226 -0.132408 0.206629
0.461575 -0.133282 0.193999
0.467016 -0.087682 0.211459
0.490636 -0.098395 0.183399
0.508186 -0.101813 0.171929
0.517366 -0.088413 0.196349
0.509066 -0.066428 0.219819
0.600616 -0.115757 0.109510
0.623596 -0.063707 0.118829
0.535415 -0.118877 0.142379
0.531875 -0.093607 0.176929
0.548035 -0.095458 0.150229
0.563556 -0.080991 0.161799
0.525025 -0.022417 0.235759
0.560975 -0.031009 0.204689
0.597946 -0.080146 0.128339
0.574015 -0.064521 0.166899
0.545016 -0.012496 0.228969
0.564766 0.006451 0.198069
0.568315 0.031280 0.208449
0.575136 0.055265 0.207929
0.576266 -0.013015 0.168019
0.606216 0.007967 0.145199
0.608986 0.058027 0.180180
0.628406 0.055787 0.160839
0.591006 0.076284 0.193149
0.438196 -0.076219 0.249579
0.442276 -0.047791 0.268489
0.480426 -0.044544 0.245519
0.455296 -0.000441 0.275789
0.433856 0.020131 0.305890
0.441786 0.063316 0.312100
0.469806 0.050766 0.305919
0.496776 -0.018955 0.247129
0.513085 0.000270 0.250940
0.510905 0.053549 0.288119
0.497796 0.068010 0.299809
0.529266 0.043010 0.249089
0.527776 0.059297 0.275189
0.631855 -0.169300 0.031739
0.643936 -0.146439 0.055279
0.658166 -0.125094 0.042219
0.680005 -0.054475 0.039599
0.638456 -0.116640 0.085019
0.630956 -0.086735 0.108569
0.643175 -0.047579 0.099569
0.696235 -0.048711 0.025419
0.666596 0.000178 0.072149
0.637796 -0.018541 0.108059
0.683345 0.018632 0.073929
0.682435 0.037133 0.084259
0.663206 0.066944 0.122850
0.705155 0.015189 0.047509
0.719815 0.033502 0.037489
0.729295 0.063473 0.030119
0.646725 0.043116 0.132309
-0.485974 0.086486 -0.613793
-0.461185 0.105642 -0.585389
-0.496009 0.099542 -0.539225
-0.479241 0.111500 -0.525846
-0.548784 0.086410 -0.456847
-0.551579 0.126622 -0.413212
-0.538092 0.122843 -0.439163
-0.529694 0.144458 -0.422117
-0.487035 0.122940 -0.489894
-0.482221 0.140181 -0.471017
-0.508275 0.151490 -0.434219
-0.474374 0.156775 -0.456424
-0.596134 0.089028 -0.380443
-0.569012 0.109903 -0.408141
-0.599739 0.095705 -0.355582
-0.562551 0.129981 -0.338936
-0.590153 0.102501 -0.301222
-0.569658 0.101593 -0.254070
-0.560104 0.132118 -0.381133
-0.513379 0.160891 -0.409805
-0.556965 0.129355 -0.309450
-0.521313 0.162647 -0.337279
-0.482495 0.188923 -0.377531
-0.502729 0.183565 -0.330751
-0.484445 0.201133 -0.318922
-0.460393 0.205224 -0.322577
-0.540752 0.140259 -0.269263
-0.528750 0.162758 -0.275869
-0.547378 0.133667 -0.236440
-0.530270 0.153934 -0.227223
-0.514953 0.162133 -0.213563
-0.497089 0.191545 -0.249193
-0.484148 0.210414 -0.292558
-0.453089 0.219496 -0.277291
-0.473020 0.203070 -0.220128
-0.540871 0.124391 -0.195028
-0.528369 0.136892 -0.179595
-0.513847 0.152759 -0.184595
-0.540951 0.093820 -0.113286
-0.538077 0.101033 -0.089377
-0.494741 0.147820 -0.147536
-0.470453 0.169907 -0.153267
-0.494507 0.142660 -0.124432
-0.481175 0.151694 -0.108774
-0.548253 0.089864 -0.065913
-0.515124 0.090549 -0.023871
-0.476242 0.131458 -0.049095
-0.485775 0.101913 -0.017141
-0.460737 0.109675 -0.007261
-0.445204 0.113461 -0.613793
-0.427982 0.136641 -0.583938
-0.407438 0.148337 -0.579532
-0.430467 0.144375 -0.534404
-0.377254 0.147906 -0.613793
-0.355257 0.164890 -0.593967
-0.384476 0.177445 -0.522354
-0.358287 0.290549 -0.589116
-0.442542 0.146408 -0.497042
-0.408093 0.170889 -0.509301
-0.411229 0.182296 -0.484686
-0.385539 0.181088 -0.493703
-0.375550 0.189784 -0.467511
-0.406359 0.193551 -0.465485
-0.385412 0.198375 -0.451142
-0.361099 0.209475 -0.428442
-0.335198 0.175933 -0.582205
-0.338787 0.179579 -0.546128
-0.321468 0.197847 -0.592122
-0.348211 0.279171 -0.613793
-0.322555 0.225205 -0.560817
-0.331393 0.254537 -0.542985
-0.345934 0.197125 -0.470326
-0.314180 0.193846 -0.526995
-0.317803 0.227179 -0.488736
-0.319748 0.251794 -0.493850
-0.317497 0.276811 -0.472420
-0.346537 0.233514 -0.438440
-0.319377 0.275890 -0.450022
-0.378615 0.340326 -0.606998
-0.388110 0.367506 -0.606998
-0.379971 0.351366 -0.574745
-0.373361 0.353977 -0.547807
-0.360184 0.331944 -0.530214
-0.374257 0.374302 -0.532252
-0.371829 0.429592 -0.583803
-0.351434 0.444962 -0.561582
-0.362348 0.360737 -0.522098
-0.344958 0.387682 -0.507970
-0.317450 0.477692 -0.595435
-0.339886 0.446362 -0.539967
-0.332462 0.467042 -0.563345
-0.303881 0.470712 -0.531542
-0.241354 0.500312 -0.606998
-0.285204 0.480872 -0.536539
-0.261573 0.487802 -0.535996
-0.347323 0.338836 -0.513945
-0.326303 0.358759 -0.489839
-0.302270 0.373622 -0.466934
-0.313659 0.302036 -0.470449
-0.300616 0.340518 -0.444193
-0.287214 0.395302 -0.447296
-0.282516 0.390392 -0.422405
-0.305482 0.414892 -0.491761
-0.270126 0.454052 -0.479611
-0.268185 0.469432 -0.498277
-0.260555 0.488342 -0.490921
-0.285281 0.412962 -0.458553
-0.284280 0.436282 -0.419087
-0.287601 0.464762 -0.435958
-0.286089 0.499472 -0.437396
-0.220969 0.506462 -0.606998
-0.201981 0.516992 -0.606998
-0.269088 0.538072 -0.468017
-0.254343 0.555852 -0.473286
-0.274544 0.555752 -0.440491
-0.262017 0.578622 -0.445011
-0.263444 0.588622 -0.425621
-0.189820 0.532352 -0.591547
-0.211380 0.562202 -0.527701
-0.175683 0.544172 -0.606998
-0.135209 0.584952 -0.606998
-0.176824 0.571012 -0.549237
-0.156134 0.583922 -0.555359
-0.133318 0.623422 -0.534003
-0.228141 0.553982 -0.518856
-0.203321 0.591272 -0.500971
-0.190570 0.613672 -0.492163
-0.233807 0.623552 -0.429281
-0.153826 0.626342 -0.514220
-0.201512 0.637962 -0.450795
-0.207910 0.641742 -0.432085
-0.174053 0.638332 -0.483103
-0.143960 0.658572 -0.487645
-0.177497 0.663652 -0.424906
-0.145163 0.676312 -0.446788
-0.108166 0.614812 -0.583163
-0.126638 0.611192 -0.563734
-0.086364 0.629122 -0.580157
-0.093791 0.645532 -0.534558
-0.034323 0.647422 -0.607097
-0.058829 0.661482 -0.562467
-0.031074 0.666452 -0.565224
-0.120754 0.659442 -0.499817
-0.079467 0.689792 -0.475612
-0.128143 0.680032 -0.423088
-0.080147 0.698702 -0.445552
-0.048698 0.688332 -0.513213
-0.031505 0.702472 -0.480824
-0.056841 0.718852 -0.412675
-0.036276 0.717632 -0.416827
-0.450958 0.196536 -0.380306
-0.406226 0.207525 -0.410613
-0.435215 0.210857 -0.319698
-0.383121 0.207680 -0.411711
-0.368554 0.218235 -0.402159
-0.348984 0.253793 -0.412620
-0.348731 0.300789 -0.363720
-0.378080 0.245114 -0.338282
-0.378278 0.264189 -0.311435
-0.366169 0.285201 -0.350048
-0.411610 0.217365 -0.305049
-0.453774 0.219076 -0.252786
-0.444222 0.204741 -0.194671
-0.420914 0.220721 -0.250617
-0.404674 0.253473 -0.226116
-0.393600 0.245419 -0.275787
-0.387292 0.260816 -0.260595
-0.395962 0.248965 -0.244314
-0.396364 0.291613 -0.203269
-0.344488 0.288930 -0.385400
-0.348503 0.326021 -0.326630
-0.375839 0.306102 -0.266618
-0.349791 0.335155 -0.254762
-0.375840 0.312254 -0.198919
-0.330972 0.320424 -0.363283
-0.309985 0.332176 -0.385966
-0.299776 0.409412 -0.377560
-0.326979 0.339310 -0.315030
-0.306365 0.366419 -0.353010
-0.303566 0.392882 -0.315120
-0.309770 0.434902 -0.365906
-0.294209 0.483352 -0.412131
-0.304535 0.484652 -0.369408
-0.316185 0.450052 -0.345576
-0.300791 0.416912 -0.309525
-0.320858 0.476222 -0.335197
-0.285430 0.414102 -0.400577
-0.318243 0.345291 -0.286178
-0.299060 0.398602 -0.295232
-0.337605 0.342800 -0.233918
-0.325415 0.380672 -0.237097
-0.324944 0.396152 -0.213835
-0.294023 0.400462 -0.246324
-0.310226 0.485502 -0.301613
-0.306625 0.412702 -0.211131
-0.287003 0.431592 -0.261424
-0.282582 0.484632 -0.260861
-0.275329 0.431172 -0.226476
-0.289733 0.413642 -0.221518
-0.275253 0.465332 -0.250910
-0.258387 0.511262 -0.226596
-0.251796 0.505612 -0.203718
-0.447136 0.194457 -0.128966
-0.433346 0.221311 -0.180828
-0.425087 0.237028 -0.191917
-0.422651 0.254476 -0.178423
-0.438762 0.200493 -0.102232
-0.423875 0.226182 -0.100682
-0.404109 0.252294 -0.116094
-0.392348 0.272541 -0.136545
-0.374764 0.291932 -0.125115
-0.453909 0.157563 -0.078258
-0.439671 0.191009 -0.060858
-0.437619 0.180363 -0.037980
-0.430393 0.140683 0.007449
-0.422592 0.173500 0.000119
-0.415445 0.229950 -0.076227
-0.416758 0.245301 -0.055082
-0.419465 0.214345 -0.020541
-0.380942 0.289536 -0.085844
-0.403374 0.254695 -0.034933
-0.401952 0.216911 0.004629
-0.389273 0.270007 -0.027160
-0.369819 0.248663 0.017099
-0.364077 0.328471 -0.187327
-0.352835 0.347837 -0.184501
-0.353762 0.364006 -0.169726
-0.354395 0.338543 -0.117477
-0.356020 0.315412 -0.084133
-0.317228 0.409652 -0.182960
-0.330519 0.401622 -0.161174
-0.322422 0.401322 -0.137513
-0.316220 0.366242 -0.083414
-0.301268 0.424952 -0.144885
-0.277635 0.449682 -0.149960
-0.260493 0.462222 -0.142643
-0.259566 0.483692 -0.146950
-0.288090 0.420742 -0.099958
-0.265600 0.440772 -0.100827
-0.251735 0.513852 -0.145218
-0.334308 0.335191 -0.074273
-0.323115 0.325220 -0.037196
-0.306168 0.386622 -0.079221
-0.336479 0.296987 -0.022850
-0.308194 0.323191 0.010699
-0.299976 0.358690 -0.013691
-0.284897 0.397292 -0.034782
-0.281136 0.370952 -0.001661
-0.249338 0.398632 0.000559
-0.249921 0.441422 -0.075792
-0.234862 0.473772 -0.090969
-0.232719 0.451262 -0.051875
-0.226019 0.474012 -0.039907
-0.217138 0.501252 -0.036656
-0.216815 0.462992 -0.018861
-0.214076 0.442882 -0.004121
-0.196116 0.482182 0.013999
-0.306915 0.530802 -0.345778
-0.295063 0.570802 -0.346373
-0.294619 0.581422 -0.329447
-0.287009 0.549372 -0.389108
-0.284937 0.566112 -0.377836
-0.263705 0.596672 -0.360838
-0.291348 0.586102 -0.309561
-0.254654 0.613312 -0.351658
-0.242634 0.631772 -0.348313
-0.289506 0.533922 -0.267306
-0.283852 0.577882 -0.267230
-0.248881 0.606762 -0.271683
-0.254807 0.565502 -0.227570
-0.244259 0.558032 -0.213339
-0.249314 0.537532 -0.163461
-0.246099 0.552882 -0.138217
-0.237560 0.631482 -0.388844
-0.199257 0.660392 -0.381713
-0.236391 0.626672 -0.315591
-0.187739 0.657512 -0.331056
-0.171317 0.674472 -0.380991
-0.143806 0.683332 -0.406499
-0.163510 0.659692 -0.328402
-0.234099 0.615502 -0.281692
-0.234010 0.600512 -0.249726
-0.223848 0.590832 -0.208232
-0.196368 0.650902 -0.298512
-0.194918 0.633122 -0.231558
-0.179074 0.640852 -0.257660
-0.132634 0.698612 -0.301222
-0.178131 0.645702 -0.237788
-0.166594 0.650932 -0.218767
-0.148701 0.656632 -0.201995
-0.130758 0.688112 -0.360951
-0.079786 0.718422 -0.392480
-0.106609 0.705872 -0.334045
-0.104684 0.711722 -0.309366
-0.048345 0.727792 -0.384897
-0.079788 0.716562 -0.328276
-0.124572 0.691672 -0.267633
-0.082702 0.708472 -0.262318
-0.105218 0.684812 -0.235561
-0.058514 0.723092 -0.291976
-0.026803 0.728892 -0.277239
-0.063830 0.710922 -0.221939
-0.048539 0.738872 -0.312970
-0.022124 0.734212 -0.348137
-0.039932 0.739492 -0.233846
-0.242197 0.564882 -0.176354
-0.231410 0.614522 -0.172991
-0.203580 0.621912 -0.158936
-0.214581 0.561332 -0.101986
-0.199812 0.610472 -0.125932
-0.179641 0.624092 -0.123397
-0.214599 0.632752 -0.182140
-0.178557 0.644632 -0.168627
-0.153713 0.654742 -0.168206
-0.130599 0.650372 -0.121069
-0.226586 0.526982 -0.077597
-0.204461 0.521112 -0.033853
-0.179941 0.556572 -0.055398
-0.160031 0.616522 -0.081975
-0.148947 0.596102 -0.045082
-0.182157 0.533782 -0.019600
-0.167200 0.526342 0.009019
-0.138198 0.599562 -0.024691
-0.108593 0.684512 -0.181285
-0.081392 0.687372 -0.145207
-0.082393 0.681152 -0.117725
-0.057342 0.714992 -0.191465
-0.055430 0.696202 -0.150734
-0.032028 0.722182 -0.160083
-0.042069 0.686242 -0.107777
-0.120032 0.604712 -0.010701
-0.102959 0.601602 0.004369
-0.120988 0.649542 -0.084405
-0.112249 0.650722 -0.043011
-0.122190 0.631482 -0.027521
-0.066558 0.679302 -0.093323
-0.060124 0.669912 -0.032598
-0.050308 0.690092 -0.064117
-0.030708 0.689832 -0.056601
-0.045688 0.654402 -0.007961
-0.003528 0.647972 -0.613793
0.013943 0.661712 -0.600469
-0.012601 0.688902 -0.541638
0.037242 0.652892 -0.614653
0.065077 0.674092 -0.592500
0.061724 0.687462 -0.570171
0.070876 0.697192 -0.546235
-0.009253 0.710482 -0.489189
0.029741 0.726062 -0.470497
-0.016051 0.728052 -0.411584
0.035986 0.709552 -0.522316
0.038978 0.726192 -0.494173
0.038897 0.735392 -0.449045
0.101296 0.680282 -0.578278
0.095400 0.686512 -0.555650
0.126886 0.706592 -0.551702
0.145966 0.664102 -0.613793
0.193526 0.666492 -0.614945
0.160565 0.700292 -0.576337
0.175476 0.717582 -0.552784
0.085202 0.713252 -0.503789
0.023842 0.733942 -0.425729
0.081208 0.745122 -0.442776
0.092653 0.740422 -0.467535
0.135246 0.758392 -0.484892
0.089951 0.757732 -0.421243
0.144036 0.768242 -0.438064
0.159576 0.749922 -0.508391
0.189146 0.754202 -0.495711
0.194116 0.767972 -0.427086
0.203156 0.688792 -0.587411
0.198576 0.725162 -0.532727
0.241566 0.689702 -0.573573
0.254686 0.656152 -0.620588
0.280025 0.672462 -0.597556
0.266776 0.713732 -0.547862
0.286626 0.694122 -0.572681
0.216565 0.728682 -0.510988
0.410966 0.623682 -0.620588
0.309366 0.676092 -0.588639
0.309096 0.693842 -0.570067
0.305575 0.725002 -0.522267
0.347136 0.693892 -0.550906
0.365776 0.639312 -0.620588
0.380985 0.655012 -0.590295
0.371145 0.679252 -0.558219
0.367545 0.691852 -0.539303
0.341436 0.731042 -0.498730
0.341786 0.732882 -0.421589
0.387726 0.699412 -0.510603
0.391566 0.721962 -0.470399
0.361456 0.724312 -0.446186
0.387695 0.723422 -0.448612
0.202085 0.741062 -0.503489
0.240606 0.735522 -0.493756
0.211385 0.769712 -0.412043
0.236836 0.757582 -0.415431
0.271785 0.749282 -0.473440
0.282146 0.750912 -0.448704
0.314776 0.735202 -0.497767
0.317466 0.736862 -0.428510
0.005380 0.733922 -0.387451
0.027072 0.740892 -0.370301
-0.000663 0.756312 -0.318758
0.024848 0.765282 -0.318237
0.068789 0.763892 -0.397017
0.058461 0.776932 -0.350110
0.080104 0.782162 -0.344572
-0.008823 0.747162 -0.288665
0.014538 0.760682 -0.296016
0.005233 0.761262 -0.243113
0.006147 0.761992 -0.199800
0.041394 0.765912 -0.291842
0.064103 0.762952 -0.251707
0.059167 0.756892 -0.231247
0.086451 0.772592 -0.397206
0.090609 0.783332 -0.373028
0.105887 0.781952 -0.350731
0.098617 0.789862 -0.323359
0.140696 0.766912 -0.372434
0.187725 0.769702 -0.403236
0.184576 0.762312 -0.356806
0.195016 0.767232 -0.328123
0.108808 0.782482 -0.279740
0.122637 0.791902 -0.296075
0.101927 0.763302 -0.216255
0.142746 0.787982 -0.304574
0.150076 0.788752 -0.257225
0.143136 0.785172 -0.224176
0.173425 0.796912 -0.223616
-0.009269 0.704072 -0.134094
0.005371 0.702652 -0.114788
0.024656 0.710362 -0.103484
0.077923 0.725182 -0.099239
0.031572 0.699242 -0.076204
0.031814 0.683832 -0.036992
0.008548 0.674312 -0.022971
0.016962 0.664142 -0.001801
0.047869 0.694702 -0.054004
0.034474 0.673282 0.004549
0.070818 0.697952 -0.010551
0.084228 0.700352 0.003319
0.102596 0.712432 -0.054881
0.117772 0.716512 -0.038449
0.135946 0.728562 -0.017871
0.147356 0.730502 -0.067340
0.189085 0.734432 -0.079823
0.191856 0.734672 -0.043841
0.159556 0.731042 -0.002241
-0.009957 0.746252 -0.189269
0.028062 0.754932 -0.176506
0.051521 0.748722 -0.170647
0.076683 0.764712 -0.171791
0.073202 0.737882 -0.119985
0.096656 0.773932 -0.164398
0.122784 0.774402 -0.154272
0.111913 0.768512 -0.138264
0.143606 0.780422 -0.160833
0.181985 0.786992 -0.163798
0.151736 0.759842 -0.112184
0.171196 0.758182 -0.109279
0.146836 0.739342 -0.086902
0.404075 0.726152 -0.390097
0.409226 0.730232 -0.238461
0.213005 0.766692 -0.378162
0.207656 0.765012 -0.349881
0.229516 0.757972 -0.354812
0.257706 0.754562 -0.397938
0.279476 0.754202 -0.395242
0.276066 0.761872 -0.348083
0.299366 0.763662 -0.310769
0.227616 0.778412 -0.273256
0.239295 0.784832 -0.209651
0.221125 0.792432 -0.212543
0.282736 0.776712 -0.296844
0.262056 0.780252 -0.249609
0.248646 0.773832 -0.193805
0.293616 0.768192 -0.200225
0.319906 0.751562 -0.374308
0.315416 0.756402 -0.328695
0.347666 0.747582 -0.360174
0.388986 0.733062 -0.369193
0.390786 0.737682 -0.334379
0.302026 0.764042 -0.287071
0.344236 0.762912 -0.286197
0.312226 0.771482 -0.247303
0.341226 0.767332 -0.225479
0.362115 0.754252 -0.296988
0.373525 0.756112 -0.258414
0.374546 0.752422 -0.229154
0.223386 0.726712 0.009479
0.285575 0.726012 0.010770
0.404626 0.733292 -0.114493
0.341376 0.732732 -0.011551
0.361096 0.707142 0.018899
0.397326 0.721092 -0.026671
0.409846 0.695732 0.005199
0.236456 0.760152 -0.147120
0.202056 0.770052 -0.136850
0.210846 0.740262 -0.089921
0.280086 0.755882 -0.181080
0.275066 0.755702 -0.158527
0.265146 0.754352 -0.127891
0.290986 0.758502 -0.090280
0.209916 0.744162 -0.038620
0.248026 0.741122 -0.050096
0.220705 0.741232 -0.019021
0.270635 0.740772 -0.053018
0.289656 0.741022 -0.044465
0.314136 0.761932 -0.184177
0.339816 0.754822 -0.172117
0.353696 0.744422 -0.146516
0.323065 0.750282 -0.112132
0.378376 0.736282 -0.182322
0.366906 0.748602 -0.126380
0.393916 0.743642 -0.137408
0.313956 0.748822 -0.049698
0.322846 0.738812 -0.024991
0.365196 0.734402 -0.029691
0.625675 0.156861 -0.634178
0.611346 0.381092 -0.634178
0.561665 0.496612 -0.627383
0.627626 0.419552 -0.605347
0.617105 0.458992 -0.599163
0.597375 0.459722 -0.620131
0.592336 0.500862 -0.600485
0.625225 0.507372 -0.581063
0.628406 0.265581 -0.635494
0.639535 0.096022 -0.623550
0.650925 0.101187 -0.596693
0.640796 0.179871 -0.609783
0.658086 0.099500 -0.575452
0.684716 0.098677 -0.538544
0.660236 0.145326 -0.573038
0.685585 0.184328 -0.550794
0.705605 0.164804 -0.535565
0.647986 0.210537 -0.604498
0.656606 0.234713 -0.595013
0.671376 0.259183 -0.584110
0.667406 0.301883 -0.589685
0.678266 0.220092 -0.560974
0.686125 0.206086 -0.542136
0.703676 0.245395 -0.533232
0.694396 0.259352 -0.546685
0.702446 0.118663 -0.523975
0.736515 0.136255 -0.494491
0.730706 0.190806 -0.512329
0.720565 0.240796 -0.518957
0.740395 0.112133 -0.497388
0.749536 0.183391 -0.493888
0.765385 0.097380 -0.456304
0.763586 0.154617 -0.454841
0.781535 0.140536 -0.422207
0.789496 0.179861 -0.422835
0.755066 0.209861 -0.475267
0.749556 0.269839 -0.479622
0.761606 0.202104 -0.458136
0.780566 0.238863 -0.437273
0.762535 0.252671 -0.467855
0.769955 0.297920 -0.439391
0.656626 0.325247 -0.601490
0.636176 0.395572 -0.605992
0.678035 0.312359 -0.575058
0.669476 0.364427 -0.577638
0.689646 0.313603 -0.554946
0.684725 0.385942 -0.545322
0.647286 0.419182 -0.583883
0.675976 0.415072 -0.552103
0.649796 0.508572 -0.567986
0.663966 0.506812 -0.550873
0.712926 0.308782 -0.515325
0.725096 0.319732 -0.498446
0.701775 0.371882 -0.504578
0.711966 0.365305 -0.482974
0.723615 0.364451 -0.457964
0.729366 0.372922 -0.427067
0.668746 0.497982 -0.521429
0.681846 0.485022 -0.476515
0.709766 0.409672 -0.468332
0.685556 0.517982 -0.505644
0.692775 0.454562 -0.444933
0.713636 0.415182 -0.443795
0.692536 0.473922 -0.427301
0.710956 0.510882 -0.419884
0.757516 0.310181 -0.457507
0.744055 0.352512 -0.424592
0.451226 0.624892 -0.603292
0.492505 0.587852 -0.627383
0.499305 0.605332 -0.614880
0.438616 0.638002 -0.590370
0.425206 0.673032 -0.531179
0.445746 0.671322 -0.539338
0.492745 0.655202 -0.578224
0.496055 0.673342 -0.562862
0.514836 0.685542 -0.553080
0.430886 0.703502 -0.486671
0.466726 0.715542 -0.494747
0.439485 0.716812 -0.443683
0.477275 0.709582 -0.518714
0.500905 0.717772 -0.515552
0.526486 0.523792 -0.631084
0.559095 0.522382 -0.618796
0.526946 0.589642 -0.614329
0.574256 0.585932 -0.606352
0.602636 0.521992 -0.595529
0.608476 0.566322 -0.594527
0.595966 0.626242 -0.590068
0.622686 0.582682 -0.587600
0.541736 0.631652 -0.598810
0.566846 0.646002 -0.590377
0.562435 0.666052 -0.574220
0.557595 0.686262 -0.553526
0.607756 0.644822 -0.577964
0.578806 0.691562 -0.543809
0.623266 0.698122 -0.527534
0.578076 0.709382 -0.520361
