0.195976 0.130947 -0.440961
0.159095 0.106303 -0.461940
0.120682 0.080636 -0.478470
0.081106 0.054193 -0.490393
0.040749 0.027227 -0.497592
0.043222 0.023102 0.497592
0.086028 0.045982 0.490393
0.128004 0.068419 0.478470
0.168749 0.090198 0.461940
0.207868 0.111107 0.440961
0.244985 0.130947 0.415735
0.279743 0.149525 0.386505
0.311807 0.166664 0.353553
0.340867 0.182197 0.317197
0.366646 0.195976 0.277785
0.388893 0.207867 0.235698
0.407395 0.217757 0.191342
0.421973 0.225549 0.145142
0.432488 0.231169 0.097545
0.438838 0.234563 0.049009
0.440961 0.235698 -0.000000
0.438838 0.234563 -0.049009
0.432488 0.231169 -0.097545
0.421973 0.225549 -0.145142
0.407395 0.217757 -0.191342
0.388893 0.207867 -0.235699
0.366646 0.195976 -0.277785
0.340867 0.182197 -0.317197
0.311806 0.166664 -0.353554
0.279743 0.149525 -0.386505
0.244985 0.130947 -0.415735
0.207868 0.111107 -0.440961
0.168748 0.090198 -0.461940
0.128004 0.068419 -0.478470
0.086027 0.045982 -0.490393
0.043222 0.023102 -0.497592
0.045278 0.018754 0.497592
0.090120 0.037329 0.490393
0.134094 0.055543 0.478470
0.176777 0.073223 0.461940
0.217757 0.090198 0.440961
0.256640 0.106304 0.415735
0.293052 0.121386 0.386505
0.326641 0.135299 0.353553
0.357085 0.147909 0.317197
0.384089 0.159095 0.277785
0.407395 0.168748 0.235698
0.426777 0.176776 0.191342
0.442049 0.183102 0.145142
0.453064 0.187665 0.097545
0.459716 0.190420 0.049009
0.461940 0.191341 -0.000000
0.459716 0.190420 -0.049009
0.453064 0.187665 -0.097545
0.442049 0.183102 -0.145142
0.426777 0.176776 -0.191342
0.407395 0.168748 -0.235699
0.384089 0.159095 -0.277785
0.357084 0.147909 -0.317197
0.326641 0.135299 -0.353554
0.293052 0.121386 -0.386505
0.256640 0.106303 -0.415735
0.217757 0.090197 -0.440961
0.176777 0.073223 -0.461940
0.134094 0.055543 -0.478470
0.090120 0.037329 -0.490393
0.045278 0.018754 -0.497592
0.046899 0.014226 0.497592
0.093345 0.028316 0.490393
0.138893 0.042132 0.478470
0.183103 0.055543 0.461940
0.225550 0.068419 0.440961
0.265824 0.080636 0.415735
0.303539 0.092077 0.386505
0.338330 0.102631 0.353553
0.369863 0.112196 0.317197
0.397834 0.120681 0.277785
0.421973 0.128004 0.235698
0.442049 0.134094 0.191342
0.457868 0.138892 0.145142
0.469277 0.142353 0.097545
0.476166 0.144443 0.049009
0.478470 0.145142 -0.000000
0.476166 0.144443 -0.049009
0.469277 0.142353 -0.097545
0.457868 0.138892 -0.145142
0.442049 0.134094 -0.191342
0.421973 0.128004 -0.235699
0.397834 0.120681 -0.277785
0.369863 0.112196 -0.317197
0.338330 0.102631 -0.353554
0.303538 0.092077 -0.386505
0.265824 0.080636 -0.415735
0.225549 0.068419 -0.440961
0.183103 0.055543 -0.461940
0.138893 0.042132 -0.478470
0.093345 0.028315 -0.490393
0.046898 0.014226 -0.497592
0.048067 0.009561 0.497592
0.095671 0.019030 0.490393
0.142354 0.028316 0.478470
0.187666 0.037329 0.461940
0.231170 0.045982 0.440961
0.272448 0.054193 0.415735
0.311102 0.061882 0.386505
0.346760 0.068975 0.353553
0.379079 0.075403 0.317197
0.407747 0.081106 0.277785
0.432488 0.086027 0.235698
0.453064 0.090120 0.191342
0.469277 0.093345 0.145142
0.480970 0.095671 0.097545
0.488031 0.097075 0.049009
0.490393 0.097545 -0.000000
0.488031 0.097075 -0.049009
0.480970 0.095671 -0.097545
0.469277 0.093345 -0.145142
0.453064 0.090120 -0.191342
0.432488 0.086027 -0.235699
0.407747 0.081105 -0.277785
0.379079 0.075403 -0.317197
0.346760 0.068974 -0.353554
0.311102 0.061882 -0.386505
0.272448 0.054193 -0.415735
0.231170 0.045982 -0.440961
0.187665 0.037329 -0.461940
0.142354 0.028315 -0.478470
0.095671 0.019030 -0.490393
0.048067 0.009561 -0.497592
0.048773 0.004803 0.497592
0.097076 0.009561 0.490393
0.144444 0.014226 0.478470
0.190421 0.018754 0.461940
0.234564 0.023102 0.440961
0.276448 0.027227 0.415735
0.315670 0.031090 0.386505
0.351851 0.034654 0.353553
0.384644 0.037884 0.317197
0.413733 0.040749 0.277785
0.438838 0.043221 0.235698
0.459716 0.045278 0.191342
0.476167 0.046898 0.145142
0.488032 0.048067 0.097545
0.495197 0.048772 0.049009
0.497593 0.049008 -0.000000
0.495197 0.048772 -0.049009
0.488032 0.048067 -0.097545
0.476166 0.046898 -0.145142
0.459716 0.045278 -0.191342
0.438837 0.043221 -0.235699
0.413733 0.040749 -0.277785
0.384644 0.037884 -0.317197
0.351851 0.034654 -0.353554
0.315669 0.031090 -0.386505
0.276448 0.027227 -0.415735
0.234564 0.023102 -0.440961
0.190420 0.018754 -0.461940
0.144444 0.014226 -0.478470
0.097075 0.009561 -0.490393
0.048773 0.004803 -0.497592
0.049009 -0.000000 0.497592
0.097546 -0.000000 0.490393
0.145143 -0.000000 0.478470
0.191342 -0.000000 0.461940
0.235699 -0.000000 0.440961
0.277785 -0.000000 0.415735
0.317197 -0.000000 0.386505
0.353554 -0.000000 0.353553
0.386506 -0.000000 0.317197
0.415735 -0.000000 0.277785
0.440961 -0.000000 0.235698
0.461940 -0.000000 0.191342
0.478471 -0.000000 0.145142
0.490393 -0.000000 0.097545
0.497593 -0.000000 0.049009
0.500000 -0.000000 -0.000000
0.497593 -0.000000 -0.049009
0.490393 -0.000000 -0.097545
0.478470 -0.000000 -0.145142
0.461940 -0.000000 -0.191342
0.440961 -0.000000 -0.235699
0.415735 -0.000000 -0.277785
0.386505 -0.000000 -0.317197
0.353554 -0.000000 -0.353554
0.317197 -0.000000 -0.386505
0.277785 -0.000000 -0.415735
0.235699 -0.000000 -0.440961
0.191342 -0.000000 -0.461940
0.145142 -0.000000 -0.478470
0.097545 -0.000000 -0.490393
0.049009 -0.000000 -0.497592
0.048773 -0.004804 0.497592
0.097076 -0.009562 0.490393
0.144444 -0.014227 0.478470
0.190421 -0.018755 0.461940
0.234564 -0.023103 0.440961
0.276448 -0.027228 0.415735
0.315670 -0.031091 0.386505
0.351851 -0.034655 0.353553
0.384644 -0.037885 0.317197
0.413733 -0.040750 0.277785
0.438838 -0.043222 0.235698
0.459716 -0.045278 0.191342
0.476167 -0.046899 0.145142
0.488032 -0.048067 0.097545
0.495196 -0.048773 0.049009
0.497593 -0.049009 -0.000000
0.495196 -0.048773 -0.049009
0.488032 -0.048067 -0.097545
0.476166 -0.046899 -0.145142
0.459716 -0.045278 -0.191342
0.438837 -0.043222 -0.235699
0.413733 -0.040750 -0.277785
0.384644 -0.037885 -0.317197
0.351851 -0.034655 -0.353554
0.315669 -0.031091 -0.386505
0.276448 -0.027228 -0.415735
0.234564 -0.023103 -0.440961
0.190420 -0.018755 -0.461940
0.144444 -0.014227 -0.478470
0.097075 -0.009562 -0.490393
0.048773 -0.004804 -0.497592
0.048067 -0.009562 0.497592
0.095671 -0.019031 0.490393
0.142354 -0.028316 0.478470
0.187666 -0.037329 0.461940
0.231170 -0.045983 0.440961
0.272448 -0.054194 0.415735
0.311102 -0.061882 0.386505
0.346760 -0.068975 0.353553
0.379079 -0.075404 0.317197
0.407747 -0.081106 0.277785
0.432488 -0.086028 0.235698
0.453064 -0.090120 0.191342
0.469277 -0.093345 0.145142
0.480970 -0.095671 0.097545
0.488031 -0.097076 0.049009
0.490393 -0.097546 -0.000000
0.488031 -0.097076 -0.049009
0.480970 -0.095671 -0.097545
0.469277 -0.093345 -0.145142
0.453064 -0.090120 -0.191342
0.432488 -0.086028 -0.235699
0.407747 -0.081106 -0.277785
0.379079 -0.075404 -0.317197
0.346760 -0.068975 -0.353554
0.311102 -0.061882 -0.386505
0.272448 -0.054194 -0.415735
0.231170 -0.045983 -0.440961
0.187665 -0.037329 -0.461940
0.142354 -0.028316 -0.478470
0.095671 -0.019031 -0.490393
0.048067 -0.009562 -0.497592
0.046899 -0.014227 0.497592
0.093345 -0.028316 0.490393
0.138893 -0.042133 0.478470
0.183103 -0.055544 0.461940
0.225550 -0.068420 0.440961
0.265824 -0.080637 0.415735
0.303539 -0.092078 0.386505
0.338330 -0.102632 0.353553
0.369863 -0.112197 0.317197
0.397834 -0.120682 0.277785
0.421973 -0.128005 0.235698
0.442049 -0.134094 0.191342
0.457868 -0.138893 0.145142
0.469277 -0.142354 0.097545
0.476166 -0.144444 0.049009
0.478470 -0.145143 -0.000000
0.476166 -0.144444 -0.049009
0.469277 -0.142354 -0.097545
0.457868 -0.138893 -0.145142
0.442049 -0.134094 -0.191342
0.421973 -0.128005 -0.235699
0.397833 -0.120682 -0.277785
0.369863 -0.112197 -0.317197
0.338330 -0.102632 -0.353554
0.303538 -0.092078 -0.386505
0.265824 -0.080637 -0.415735
0.225549 -0.068420 -0.440961
0.183103 -0.055544 -0.461940
0.138893 -0.042133 -0.478470
0.093345 -0.028316 -0.490393
0.046898 -0.014227 -0.497592
0.045278 -0.018755 0.497592
0.090120 -0.037329 0.490393
0.134094 -0.055544 0.478470
0.176777 -0.073224 0.461940
0.217757 -0.090198 0.440961
0.256640 -0.106304 0.415735
0.293052 -0.121386 0.386505
0.326641 -0.135300 0.353553
0.357085 -0.147910 0.317197
0.384089 -0.159095 0.277785
0.407395 -0.168749 0.235698
0.426777 -0.176777 0.191342
0.442049 -0.183103 0.145142
0.453064 -0.187666 0.097545
0.459716 -0.190421 0.049009
0.461940 -0.191342 -0.000000
0.459716 -0.190421 -0.049009
0.453064 -0.187666 -0.097545
0.442049 -0.183103 -0.145142
0.426777 -0.176777 -0.191342
0.407395 -0.168749 -0.235699
0.384089 -0.159095 -0.277785
0.357084 -0.147910 -0.317197
0.326641 -0.135299 -0.353554
0.293052 -0.121386 -0.386505
0.256640 -0.106304 -0.415735
0.217757 -0.090198 -0.440961
0.176777 -0.073224 -0.461940
0.134094 -0.055544 -0.478470
0.090120 -0.037329 -0.490393
0.045278 -0.018755 -0.497592
0.043222 -0.023103 0.497592
0.086027 -0.045983 0.490393
0.128005 -0.068420 0.478470
0.168749 -0.090198 0.461940
0.207868 -0.111108 0.440961
0.244985 -0.130948 0.415735
0.279743 -0.149526 0.386505
0.311807 -0.166664 0.353553
0.340867 -0.182198 0.317197
0.366646 -0.195977 0.277785
0.388893 -0.207868 0.235698
0.407395 -0.217757 0.191342
0.421973 -0.225550 0.145142
0.432488 -0.231170 0.097545
0.438837 -0.234564 0.049009
0.440961 -0.235699 -0.000000
0.438837 -0.234564 -0.049009
0.432488 -0.231170 -0.097545
0.421973 -0.225550 -0.145142
0.407395 -0.217757 -0.191342
0.388893 -0.207868 -0.235699
0.366645 -0.195976 -0.277785
0.340867 -0.182198 -0.317197
0.311806 -0.166664 -0.353554
0.279742 -0.149526 -0.386505
0.244985 -0.130947 -0.415735
0.207868 -0.111108 -0.440961
0.168748 -0.090198 -0.461940
0.128004 -0.068420 -0.478470
0.086027 -0.045983 -0.490393
0.043222 -0.023103 -0.497592
0.040749 -0.027228 0.497592
0.081106 -0.054194 0.490393
0.120682 -0.080637 0.478470
0.159095 -0.106304 0.461940
0.195976 -0.130948 0.440961
0.230970 -0.154330 0.415735
0.263740 -0.176226 0.386505
0.293969 -0.196424 0.353553
0.321368 -0.214731 0.317197
0.345671 -0.230970 0.277785
0.366645 -0.244985 0.235698
0.384089 -0.256640 0.191342
0.397834 -0.265824 0.145142
0.407747 -0.272448 0.097545
0.413733 -0.276448 0.049009
0.415735 -0.277786 -0.000000
0.413733 -0.276448 -0.049009
0.407747 -0.272448 -0.097545
0.397834 -0.265824 -0.145142
0.384089 -0.256640 -0.191342
0.366645 -0.244985 -0.235699
0.345671 -0.230970 -0.277785
0.321367 -0.214731 -0.317197
0.293969 -0.196424 -0.353554
0.263739 -0.176225 -0.386505
0.230970 -0.154330 -0.415735
0.195976 -0.130947 -0.440961
0.159095 -0.106304 -0.461940
0.120682 -0.080637 -0.478470
0.081106 -0.054194 -0.490393
0.040749 -0.027228 -0.497592
0.037884 -0.031091 0.497592
0.075404 -0.061883 0.490393
0.112197 -0.092078 0.478470
0.147910 -0.121387 0.461940
0.182198 -0.149526 0.440961
0.214731 -0.176226 0.415735
0.245197 -0.201228 0.386505
0.273301 -0.224292 0.353553
0.298773 -0.245197 0.317197
0.321368 -0.263740 0.277785
0.340867 -0.279743 0.235698
0.357084 -0.293052 0.191342
0.369863 -0.303539 0.145142
0.379079 -0.311102 0.097545
0.384644 -0.315670 0.049009
0.386505 -0.317197 -0.000000
0.384644 -0.315670 -0.049009
0.379079 -0.311102 -0.097545
0.369863 -0.303539 -0.145142
0.357084 -0.293052 -0.191342
0.340867 -0.279743 -0.235699
0.321367 -0.263740 -0.277785
0.298773 -0.245197 -0.317197
0.273301 -0.224292 -0.353554
0.245196 -0.201228 -0.386505
0.214731 -0.176225 -0.415735
0.182197 -0.149526 -0.440961
0.147909 -0.121386 -0.461940
0.112197 -0.092078 -0.478470
0.075403 -0.061882 -0.490393
0.037884 -0.031091 -0.497592
0.034655 -0.034655 0.497592
0.068975 -0.068976 0.490393
0.102632 -0.102632 0.478470
0.135299 -0.135300 0.461940
0.166664 -0.166665 0.440961
0.196424 -0.196424 0.415735
0.224292 -0.224292 0.386505
0.250000 -0.250001 0.353553
0.273301 -0.273301 0.317197
0.293969 -0.293969 0.277785
0.311806 -0.311807 0.235698
0.326641 -0.326641 0.191342
0.338330 -0.338330 0.145142
0.346760 -0.346761 0.097545
0.351851 -0.351851 0.049009
0.353554 -0.353554 -0.000000
0.351851 -0.351851 -0.049009
0.346760 -0.346761 -0.097545
0.338330 -0.338330 -0.145142
0.326641 -0.326641 -0.191342
0.311806 -0.311807 -0.235699
0.293969 -0.293969 -0.277785
0.273300 -0.273301 -0.317197
0.250000 -0.250000 -0.353554
0.224292 -0.224292 -0.386505
0.196424 -0.196424 -0.415735
0.166664 -0.166664 -0.440961
0.135299 -0.135299 -0.461940
0.102631 -0.102632 -0.478470
0.068975 -0.068975 -0.490393
0.034654 -0.034655 -0.497592
0.031091 -0.037885 0.497592
0.061882 -0.075404 0.490393
0.092078 -0.112197 0.478470
0.121386 -0.147910 0.461940
0.149526 -0.182198 0.440961
0.176225 -0.214731 0.415735
0.201228 -0.245197 0.386505
0.224292 -0.273301 0.353553
0.245196 -0.298773 0.317197
0.263739 -0.321368 0.277785
0.279743 -0.340868 0.235698
0.293052 -0.357085 0.191342
0.303538 -0.369863 0.145142
0.311102 -0.379079 0.097545
0.315669 -0.384645 0.049009
0.317197 -0.386506 -0.000000
0.315669 -0.384645 -0.049009
0.311102 -0.379079 -0.097545
0.303538 -0.369863 -0.145142
0.293052 -0.357085 -0.191342
0.279743 -0.340868 -0.235699
0.263739 -0.321368 -0.277785
0.245196 -0.298773 -0.317197
0.224292 -0.273301 -0.353554
0.201227 -0.245197 -0.386505
0.176225 -0.214731 -0.415735
0.149526 -0.182198 -0.440961
0.121386 -0.147910 -0.461940
0.092077 -0.112197 -0.478470
0.061882 -0.075404 -0.490393
0.031091 -0.037885 -0.497592
0.027228 -0.040750 0.497592
0.054193 -0.081107 0.490393
0.080637 -0.120682 0.478470
0.106304 -0.159096 0.461940
0.130947 -0.195977 0.440961
0.154329 -0.230971 0.415735
0.176225 -0.263740 0.386505
0.196424 -0.293970 0.353553
0.214731 -0.321368 0.317197
0.230970 -0.345671 0.277785
0.244985 -0.366646 0.235698
0.256640 -0.384089 0.191342
0.265824 -0.397834 0.145142
0.272448 -0.407747 0.097545
0.276448 -0.413733 0.049009
0.277785 -0.415735 -0.000000
0.276448 -0.413733 -0.049009
0.272448 -0.407747 -0.097545
0.265824 -0.397834 -0.145142
0.256640 -0.384089 -0.191342
0.244985 -0.366646 -0.235699
0.230970 -0.345671 -0.277785
0.214731 -0.321368 -0.317197
0.196424 -0.293969 -0.353554
0.176225 -0.263740 -0.386505
0.154329 -0.230970 -0.415735
0.130947 -0.195977 -0.440961
0.106304 -0.159095 -0.461940
0.080637 -0.120682 -0.478470
0.054193 -0.081106 -0.490393
0.027228 -0.040750 -0.497592
0.023103 -0.043222 0.497592
0.045983 -0.086028 0.490393
0.068420 -0.128005 0.478470
0.090198 -0.168749 0.461940
0.111108 -0.207868 0.440961
0.130947 -0.244985 0.415735
0.149526 -0.279743 0.386505
0.166664 -0.311807 0.353553
0.182197 -0.340868 0.317197
0.195976 -0.366646 0.277785
0.207867 -0.388893 0.235698
0.217757 -0.407395 0.191342
0.225549 -0.421974 0.145142
0.231170 -0.432488 0.097545
0.234563 -0.438838 0.049009
0.235698 -0.440961 -0.000000
0.234563 -0.438838 -0.049009
0.231170 -0.432488 -0.097545
0.225549 -0.421974 -0.145142
0.217757 -0.407395 -0.191342
0.207867 -0.388893 -0.235699
0.195976 -0.366646 -0.277785
0.182197 -0.340868 -0.317197
0.166664 -0.311807 -0.353554
0.149526 -0.279743 -0.386505
0.130947 -0.244985 -0.415735
0.111108 -0.207868 -0.440961
0.090198 -0.168749 -0.461940
0.068420 -0.128005 -0.478470
0.045982 -0.086028 -0.490393
0.023102 -0.043222 -0.497592
0.018755 -0.045279 0.497592
0.037329 -0.090121 0.490393
0.055544 -0.134095 0.478470
0.073223 -0.176778 0.461940
0.090198 -0.217758 0.440961
0.106304 -0.256641 0.415735
0.121386 -0.293052 0.386505
0.135299 -0.326641 0.353553
0.147909 -0.357085 0.317197
0.159095 -0.384089 0.277785
0.168748 -0.407395 0.235698
0.176777 -0.426777 0.191342
0.183103 -0.442049 0.145142
0.187665 -0.453064 0.097545
0.190420 -0.459716 0.049009
0.191342 -0.461940 -0.000000
0.190420 -0.459716 -0.049009
0.187665 -0.453064 -0.097545
0.183103 -0.442049 -0.145142
0.176777 -0.426777 -0.191342
0.168748 -0.407395 -0.235699
0.159095 -0.384089 -0.277785
0.147909 -0.357085 -0.317197
0.135299 -0.326641 -0.353554
0.121386 -0.293052 -0.386505
0.106304 -0.256640 -0.415735
0.090198 -0.217757 -0.440961
0.073223 -0.176777 -0.461940
0.055544 -0.134095 -0.478470
0.037329 -0.090120 -0.490393
0.018755 -0.045278 -0.497592
0.014227 -0.046899 0.497592
0.028316 -0.093346 0.490393
0.042133 -0.138893 0.478470
0.055544 -0.183103 0.461940
0.068420 -0.225550 0.440961
0.080637 -0.265825 0.415735
0.092077 -0.303539 0.386505
0.102631 -0.338330 0.353553
0.112197 -0.369863 0.317197
0.120681 -0.397834 0.277785
0.128004 -0.421974 0.235698
0.134094 -0.442049 0.191342
0.138893 -0.457868 0.145142
0.142354 -0.469277 0.097545
0.144443 -0.476167 0.049009
0.145142 -0.478471 -0.000000
0.144443 -0.476167 -0.049009
0.142354 -0.469277 -0.097545
0.138893 -0.457868 -0.145142
0.134094 -0.442049 -0.191342
0.128004 -0.421974 -0.235699
0.120681 -0.397834 -0.277785
0.112197 -0.369863 -0.317197
0.102631 -0.338330 -0.353554
0.092077 -0.303539 -0.386505
0.080637 -0.265824 -0.415735
0.068420 -0.225550 -0.440961
0.055544 -0.183103 -0.461940
0.042133 -0.138893 -0.478470
0.028316 -0.093345 -0.490393
0.014226 -0.046899 -0.497592
0.009561 -0.048068 0.497592
0.019030 -0.095672 0.490393
0.028316 -0.142354 0.478470
0.037329 -0.187666 0.461940
0.045983 -0.231170 0.440961
0.054193 -0.272448 0.415735
0.061882 -0.311102 0.386505
0.068975 -0.346761 0.353553
0.075403 -0.379079 0.317197
0.081106 -0.407747 0.277785
0.086027 -0.432488 0.235698
0.090120 -0.453064 0.191342
0.093345 -0.469277 0.145142
0.095671 -0.480971 0.097545
0.097075 -0.488032 0.049009
0.097545 -0.490393 -0.000000
0.097075 -0.488032 -0.049009
0.095671 -0.480971 -0.097545
0.093345 -0.469277 -0.145142
0.090120 -0.453064 -0.191342
0.086027 -0.432488 -0.235699
0.081106 -0.407747 -0.277785
0.075403 -0.379079 -0.317197
0.068975 -0.346760 -0.353554
0.061882 -0.311102 -0.386505
0.054193 -0.272448 -0.415735
0.045983 -0.231170 -0.440961
0.037329 -0.187666 -0.461940
0.028316 -0.142354 -0.478470
0.019030 -0.095671 -0.490393
0.009561 -0.048067 -0.497592
0.004804 -0.048773 0.497592
0.009561 -0.097076 0.490393
0.014227 -0.144444 0.478470
0.018755 -0.190421 0.461940
0.023103 -0.234564 0.440961
0.027228 -0.276448 0.415735
0.031091 -0.315670 0.386505
0.034654 -0.351852 0.353553
0.037884 -0.384645 0.317197
0.040749 -0.413733 0.277785
0.043222 -0.438838 0.235698
0.045278 -0.459716 0.191342
0.046898 -0.476167 0.145142
0.048067 -0.488032 0.097545
0.048773 -0.495197 0.049009
0.049009 -0.497593 -0.000000
0.048773 -0.495197 -0.049009
0.048067 -0.488032 -0.097545
0.046898 -0.476167 -0.145142
0.045278 -0.459716 -0.191342
0.043222 -0.438838 -0.235699
0.040749 -0.413733 -0.277785
0.037884 -0.384645 -0.317197
0.034654 -0.351851 -0.353554
0.031091 -0.315670 -0.386505
0.027228 -0.276448 -0.415735
0.023102 -0.234564 -0.440961
0.018755 -0.190421 -0.461940
0.014226 -0.144444 -0.478470
0.009561 -0.097076 -0.490393
0.004804 -0.048773 -0.497592
-0.000000 -0.049009 0.497592
-0.000000 -0.097546 0.490393
0.000000 -0.145143 0.478470
0.000000 -0.191343 0.461940
0.000000 -0.235699 0.440961
0.000000 -0.277786 0.415735
0.000000 -0.317197 0.386505
-0.000000 -0.353554 0.353553
-0.000000 -0.386506 0.317197
0.000000 -0.415735 0.277785
-0.000000 -0.440961 0.235698
0.000000 -0.461940 0.191342
-0.000000 -0.478471 0.145142
0.000000 -0.490393 0.097545
0.000000 -0.497593 0.049009
0.000000 -0.500001 -0.000000
0.000000 -0.497593 -0.049009
0.000000 -0.490393 -0.097545
-0.000000 -0.478471 -0.145142
0.000000 -0.461940 -0.191342
0.000000 -0.440961 -0.235699
-0.000000 -0.415735 -0.277785
-0.000000 -0.386506 -0.317197
0.000000 -0.353554 -0.353554
0.000000 -0.317197 -0.386505
0.000000 -0.277786 -0.415735
0.000000 -0.235699 -0.440961
0.000000 -0.191342 -0.461940
0.000000 -0.145143 -0.478470
0.000000 -0.097546 -0.490393
-0.000000 -0.049009 -0.497592
-0.004804 -0.048773 0.497592
-0.009561 -0.097076 0.490393
-0.014226 -0.144444 0.478470
-0.018755 -0.190421 0.461940
-0.023103 -0.234564 0.440961
-0.027228 -0.276448 0.415735
-0.031091 -0.315670 0.386505
-0.034654 -0.351852 0.353553
-0.037884 -0.384645 0.317197
-0.040749 -0.413733 0.277785
-0.043222 -0.438838 0.235698
-0.045278 -0.459716 0.191342
-0.046898 -0.476167 0.145142
-0.048067 -0.488032 0.097545
-0.048773 -0.495197 0.049009
-0.049009 -0.497593 -0.000000
-0.048773 -0.495197 -0.049009
-0.048067 -0.488032 -0.097545
-0.046898 -0.476167 -0.145142
-0.045278 -0.459716 -0.191342
-0.043222 -0.438838 -0.235699
-0.040749 -0.413733 -0.277785
-0.037884 -0.384644 -0.317197
-0.034654 -0.351851 -0.353554
-0.031091 -0.315670 -0.386505
-0.027228 -0.276448 -0.415735
-0.023102 -0.234564 -0.440961
-0.018755 -0.190421 -0.461940
-0.014226 -0.144444 -0.478470
-0.009561 -0.097076 -0.490393
-0.004804 -0.048773 -0.497592
-0.009561 -0.048068 0.497592
-0.019030 -0.095672 0.490393
-0.028316 -0.142354 0.478470
-0.037329 -0.187666 0.461940
-0.045983 -0.231170 0.440961
-0.054193 -0.272448 0.415735
-0.061882 -0.311102 0.386505
-0.068975 -0.346761 0.353553
-0.075403 -0.379079 0.317197
-0.081106 -0.407747 0.277785
-0.086027 -0.432488 0.235698
-0.090120 -0.453064 0.191342
-0.093345 -0.469277 0.145142
-0.095671 -0.480971 0.097545
-0.097075 -0.488032 0.049009
-0.097545 -0.490393 -0.000000
-0.097075 -0.488032 -0.049009
-0.095671 -0.480971 -0.097545
-0.093345 -0.469277 -0.145142
-0.090120 -0.453064 -0.191342
-0.086027 -0.432488 -0.235699
-0.081106 -0.407747 -0.277785
-0.075403 -0.379079 -0.317197
-0.068975 -0.346760 -0.353554
-0.061882 -0.311102 -0.386505
-0.054193 -0.272448 -0.415735
-0.045982 -0.231170 -0.440961
-0.037329 -0.187666 -0.461940
-0.028316 -0.142354 -0.478470
-0.019030 -0.095671 -0.490393
-0.009561 -0.048067 -0.497592
-0.014227 -0.046899 0.497592
-0.028316 -0.093346 0.490393
-0.042133 -0.138893 0.478470
-0.055544 -0.183103 0.461940
-0.068420 -0.225550 0.440961
-0.080637 -0.265824 0.415735
-0.092077 -0.303539 0.386505
-0.102631 -0.338330 0.353553
-0.112197 -0.369863 0.317197
-0.120681 -0.397834 0.277785
-0.128004 -0.421974 0.235698
-0.134094 -0.442049 0.191342
-0.138893 -0.457868 0.145142
-0.142353 -0.469277 0.097545
-0.144443 -0.476167 0.049009
-0.145142 -0.478471 -0.000000
-0.144443 -0.476167 -0.049009
-0.142353 -0.469277 -0.097545
-0.138893 -0.457868 -0.145142
-0.134094 -0.442049 -0.191342
-0.128004 -0.421973 -0.235699
-0.120681 -0.397834 -0.277785
-0.112197 -0.369863 -0.317197
-0.102631 -0.338330 -0.353554
-0.092077 -0.303539 -0.386505
-0.080637 -0.265824 -0.415735
-0.068420 -0.225550 -0.440961
-0.055544 -0.183103 -0.461940
-0.042133 -0.138893 -0.478470
-0.028316 -0.093345 -0.490393
-0.014226 -0.046899 -0.497592
-0.018755 -0.045279 0.497592
-0.037329 -0.090121 0.490393
-0.055544 -0.134095 0.478470
-0.073223 -0.176777 0.461940
-0.090198 -0.217758 0.440961
-0.106304 -0.256641 0.415735
-0.121386 -0.293052 0.386505
-0.135299 -0.326641 0.353553
-0.147909 -0.357085 0.317197
-0.159095 -0.384089 0.277785
-0.168748 -0.407395 0.235698
-0.176777 -0.426777 0.191342
-0.183103 -0.442049 0.145142
-0.187665 -0.453064 0.097545
-0.190420 -0.459716 0.049009
-0.191342 -0.461940 -0.000000
-0.190420 -0.459716 -0.049009
-0.187665 -0.453064 -0.097545
-0.183103 -0.442049 -0.145142
-0.176777 -0.426777 -0.191342
-0.168748 -0.407395 -0.235699
-0.159095 -0.384089 -0.277785
-0.147909 -0.357085 -0.317197
-0.135299 -0.326641 -0.353554
-0.121386 -0.293052 -0.386505
-0.106304 -0.256640 -0.415735
-0.090198 -0.217757 -0.440961
-0.073223 -0.176777 -0.461940
-0.055544 -0.134095 -0.478470
-0.037329 -0.090120 -0.490393
-0.018755 -0.045278 -0.497592
-0.023103 -0.043222 0.497592
-0.045983 -0.086028 0.490393
-0.068420 -0.128005 0.478470
-0.090198 -0.168749 0.461940
-0.111108 -0.207868 0.440961
-0.130947 -0.244985 0.415735
-0.149526 -0.279743 0.386505
-0.166664 -0.311807 0.353553
-0.182197 -0.340868 0.317197
-0.195976 -0.366646 0.277785
-0.207867 -0.388893 0.235698
-0.217757 -0.407395 0.191342
-0.225549 -0.421974 0.145142
-0.231169 -0.432488 0.097545
-0.234563 -0.438838 0.049009
-0.235698 -0.440961 -0.000000
-0.234563 -0.438838 -0.049009
-0.231169 -0.432488 -0.097545
-0.225549 -0.421973 -0.145142
-0.217757 -0.407395 -0.191342
-0.207867 -0.388893 -0.235699
-0.195976 -0.366646 -0.277785
-0.182197 -0.340868 -0.317197
-0.166664 -0.311807 -0.353554
-0.149525 -0.279743 -0.386505
-0.130947 -0.244985 -0.415735
-0.111107 -0.207868 -0.440961
-0.090198 -0.168749 -0.461940
-0.068420 -0.128005 -0.478470
-0.045982 -0.086028 -0.490393
-0.023103 -0.043222 -0.497592
-0.027228 -0.040750 0.497592
-0.054193 -0.081107 0.490393
-0.080637 -0.120682 0.478470
-0.106304 -0.159096 0.461940
-0.130947 -0.195977 0.440961
-0.154329 -0.230971 0.415735
-0.176225 -0.263740 0.386505
-0.196424 -0.293969 0.353553
-0.214731 -0.321368 0.317197
-0.230970 -0.345671 0.277785
-0.244985 -0.366646 0.235698
-0.256640 -0.384089 0.191342
-0.265824 -0.397834 0.145142
-0.272448 -0.407747 0.097545
-0.276447 -0.413733 0.049009
-0.277785 -0.415735 -0.000000
-0.276447 -0.413733 -0.049009
-0.272448 -0.407747 -0.097545
-0.265824 -0.397834 -0.145142
-0.256640 -0.384089 -0.191342
-0.244985 -0.366646 -0.235699
-0.230970 -0.345671 -0.277785
-0.214731 -0.321368 -0.317197
-0.196424 -0.293969 -0.353554
-0.176225 -0.263740 -0.386505
-0.154329 -0.230970 -0.415735
-0.130947 -0.195977 -0.440961
-0.106304 -0.159095 -0.461940
-0.080637 -0.120682 -0.478470
-0.054193 -0.081106 -0.490393
-0.027228 -0.040750 -0.497592
-0.031091 -0.037885 0.497592
-0.061882 -0.075404 0.490393
-0.092078 -0.112197 0.478470
-0.121386 -0.147910 0.461940
-0.149526 -0.182198 0.440961
-0.176225 -0.214731 0.415735
-0.201228 -0.245197 0.386505
-0.224292 -0.273301 0.353553
-0.245196 -0.298773 0.317197
-0.263739 -0.321368 0.277785
-0.279743 -0.340868 0.235698
-0.293052 -0.357085 0.191342
-0.303538 -0.369863 0.145142
-0.311102 -0.379079 0.097545
-0.315669 -0.384645 0.049009
-0.317197 -0.386506 -0.000000
-0.315669 -0.384645 -0.049009
-0.311102 -0.379079 -0.097545
-0.303538 -0.369863 -0.145142
-0.293051 -0.357085 -0.191342
-0.279742 -0.340868 -0.235699
-0.263739 -0.321368 -0.277785
-0.245196 -0.298773 -0.317197
-0.224292 -0.273301 -0.353554
-0.201227 -0.245197 -0.386505
-0.176225 -0.214731 -0.415735
-0.149526 -0.182198 -0.440961
-0.121386 -0.147910 -0.461940
-0.092077 -0.112197 -0.478470
-0.061882 -0.075404 -0.490393
-0.031091 -0.037885 -0.497592
-0.034655 -0.034655 0.497592
-0.068975 -0.068975 0.490393
-0.102631 -0.102632 0.478470
-0.135299 -0.135300 0.461940
-0.166664 -0.166665 0.440961
-0.196424 -0.196424 0.415735
-0.224292 -0.224292 0.386505
-0.250000 -0.250001 0.353553
-0.273301 -0.273301 0.317197
-0.293969 -0.293969 0.277785
-0.311806 -0.311807 0.235698
-0.326641 -0.326641 0.191342
-0.338330 -0.338330 0.145142
-0.346760 -0.346761 0.097545
-0.351851 -0.351851 0.049009
-0.353553 -0.353554 -0.000000
-0.351851 -0.351851 -0.049009
-0.346760 -0.346761 -0.097545
-0.338330 -0.338330 -0.145142
-0.326641 -0.326641 -0.191342
-0.311806 -0.311807 -0.235699
-0.293969 -0.293969 -0.277785
-0.273300 -0.273301 -0.317197
-0.250000 -0.250000 -0.353554
-0.224292 -0.224292 -0.386505
-0.196424 -0.196424 -0.415735
-0.166664 -0.166664 -0.440961
-0.135299 -0.135299 -0.461940
-0.102631 -0.102632 -0.478470
-0.068975 -0.068975 -0.490393
-0.034654 -0.034655 -0.497592
-0.037884 -0.031091 0.497592
-0.075404 -0.061883 0.490393
-0.112197 -0.092078 0.478470
-0.147909 -0.121387 0.461940
-0.182198 -0.149526 0.440961
-0.214731 -0.176226 0.415735
-0.245196 -0.201228 0.386505
-0.273301 -0.224292 0.353553
-0.298773 -0.245197 0.317197
-0.321367 -0.263740 0.277785
-0.340867 -0.279743 0.235698
-0.357084 -0.293052 0.191342
-0.369863 -0.303539 0.145142
-0.379079 -0.311102 0.097545
-0.384644 -0.315670 0.049009
-0.386505 -0.317197 -0.000000
-0.384644 -0.315670 -0.049009
-0.379079 -0.311102 -0.097545
-0.369863 -0.303539 -0.145142
-0.357084 -0.293052 -0.191342
-0.340867 -0.279743 -0.235699
-0.321367 -0.263740 -0.277785
-0.298773 -0.245197 -0.317197
-0.273300 -0.224292 -0.353554
-0.245196 -0.201228 -0.386505
-0.214731 -0.176225 -0.415735
-0.182197 -0.149526 -0.440961
-0.147909 -0.121386 -0.461940
-0.112197 -0.092078 -0.478470
-0.075403 -0.061882 -0.490393
-0.037884 -0.031091 -0.497592
-0.040750 -0.027228 0.497592
-0.081106 -0.054194 0.490393
-0.120682 -0.080637 0.478470
-0.159095 -0.106304 0.461940
-0.195976 -0.130948 0.440961
-0.230970 -0.154330 0.415735
-0.263739 -0.176225 0.386505
-0.293969 -0.196424 0.353553
-0.321367 -0.214731 0.317197
-0.345671 -0.230970 0.277785
-0.366645 -0.244985 0.235698
-0.384089 -0.256640 0.191342
-0.397834 -0.265824 0.145142
-0.407747 -0.272448 0.097545
-0.413733 -0.276448 0.049009
-0.415735 -0.277786 -0.000000
-0.413733 -0.276448 -0.049009
-0.407747 -0.272448 -0.097545
-0.397833 -0.265824 -0.145142
-0.384089 -0.256640 -0.191342
-0.366645 -0.244985 -0.235699
-0.345671 -0.230970 -0.277785
-0.321367 -0.214731 -0.317197
-0.293969 -0.196424 -0.353554
-0.263739 -0.176225 -0.386505
-0.230970 -0.154330 -0.415735
-0.195976 -0.130947 -0.440961
-0.159095 -0.106304 -0.461940
-0.120682 -0.080637 -0.478470
-0.081106 -0.054194 -0.490393
-0.040749 -0.027228 -0.497592
-0.043222 -0.023103 0.497592
-0.086027 -0.045983 0.490393
-0.128005 -0.068420 0.478470
-0.168749 -0.090198 0.461940
-0.207868 -0.111108 0.440961
-0.244985 -0.130948 0.415735
-0.279743 -0.149526 0.386505
-0.311806 -0.166664 0.353553
-0.340867 -0.182198 0.317197
-0.366645 -0.195976 0.277785
-0.388893 -0.207868 0.235698
-0.407394 -0.217757 0.191342
-0.421973 -0.225550 0.145142
-0.432488 -0.231170 0.097545
-0.438837 -0.234564 0.049009
-0.440961 -0.235699 -0.000000
-0.438837 -0.234564 -0.049009
-0.432488 -0.231170 -0.097545
-0.421973 -0.225550 -0.145142
-0.407394 -0.217757 -0.191342
-0.388893 -0.207868 -0.235699
-0.366645 -0.195976 -0.277785
-0.340867 -0.182198 -0.317197
-0.311806 -0.166664 -0.353554
-0.279742 -0.149526 -0.386505
-0.244985 -0.130947 -0.415735
-0.207867 -0.111108 -0.440961
-0.168748 -0.090198 -0.461940
-0.128004 -0.068420 -0.478470
-0.086027 -0.045983 -0.490393
-0.043222 -0.023103 -0.497592
0.000000 -0.000000 -0.500000
-0.045278 -0.018755 0.497592
-0.090120 -0.037329 0.490393
-0.134094 -0.055544 0.478470
-0.176777 -0.073224 0.461940
-0.217757 -0.090198 0.440961
-0.256640 -0.106304 0.415735
-0.293052 -0.121386 0.386505
-0.326641 -0.135299 0.353553
-0.357084 -0.147910 0.317197
-0.384089 -0.159095 0.277785
-0.407395 -0.168749 0.235698
-0.426777 -0.176777 0.191342
-0.442049 -0.183103 0.145142
-0.453064 -0.187666 0.097545
-0.459715 -0.190421 0.049009
-0.461940 -0.191342 -0.000000
-0.459715 -0.190421 -0.049009
-0.453064 -0.187666 -0.097545
-0.442049 -0.183103 -0.145142
-0.426777 -0.176777 -0.191342
-0.407395 -0.168749 -0.235699
-0.384089 -0.159095 -0.277785
-0.357084 -0.147909 -0.317197
-0.326641 -0.135299 -0.353554
-0.293051 -0.121386 -0.386505
-0.256640 -0.106304 -0.415735
-0.217757 -0.090198 -0.440961
-0.176777 -0.073224 -0.461940
-0.134094 -0.055544 -0.478470
-0.090120 -0.037329 -0.490393
-0.045278 -0.018755 -0.497592
-0.046899 -0.014227 0.497592
-0.093345 -0.028316 0.490393
-0.138893 -0.042133 0.478470
-0.183103 -0.055544 0.461940
-0.225550 -0.068420 0.440961
-0.265824 -0.080637 0.415735
-0.303538 -0.092078 0.386505
-0.338330 -0.102632 0.353553
-0.369863 -0.112197 0.317197
-0.397834 -0.120682 0.277785
-0.421973 -0.128005 0.235698
-0.442049 -0.134094 0.191342
-0.457868 -0.138893 0.145142
-0.469277 -0.142354 0.097545
-0.476166 -0.144444 0.049009
-0.478470 -0.145143 -0.000000
-0.476166 -0.144444 -0.049009
-0.469277 -0.142354 -0.097545
-0.457867 -0.138893 -0.145142
-0.442049 -0.134094 -0.191342
-0.421973 -0.128005 -0.235699
-0.397833 -0.120682 -0.277785
-0.369862 -0.112197 -0.317197
-0.338330 -0.102632 -0.353554
-0.303538 -0.092078 -0.386505
-0.265824 -0.080637 -0.415735
-0.225549 -0.068420 -0.440961
-0.183103 -0.055544 -0.461940
-0.138893 -0.042133 -0.478470
-0.093345 -0.028316 -0.490393
-0.046898 -0.014227 -0.497592
-0.048067 -0.009562 0.497592
-0.095671 -0.019031 0.490393
-0.142354 -0.028316 0.478470
-0.187665 -0.037329 0.461940
-0.231170 -0.045983 0.440961
-0.272448 -0.054194 0.415735
-0.311102 -0.061882 0.386505
-0.346760 -0.068975 0.353553
-0.379079 -0.075404 0.317197
-0.407747 -0.081106 0.277785
-0.432488 -0.086028 0.235698
-0.453064 -0.090120 0.191342
-0.469277 -0.093345 0.145142
-0.480970 -0.095671 0.097545
-0.488031 -0.097076 0.049009
-0.490393 -0.097546 -0.000000
-0.488031 -0.097076 -0.049009
-0.480970 -0.095671 -0.097545
-0.469277 -0.093345 -0.145142
-0.453064 -0.090120 -0.191342
-0.432488 -0.086028 -0.235699
-0.407747 -0.081106 -0.277785
-0.379079 -0.075404 -0.317197
-0.346760 -0.068975 -0.353554
-0.311102 -0.061882 -0.386505
-0.272448 -0.054194 -0.415735
-0.231170 -0.045983 -0.440961
-0.187665 -0.037329 -0.461940
-0.142354 -0.028316 -0.478470
-0.095671 -0.019031 -0.490393
-0.048067 -0.009562 -0.497592
-0.000000 -0.000000 0.500000
-0.048773 -0.004804 0.497592
-0.097076 -0.009562 0.490393
-0.144444 -0.014227 0.478470
-0.190421 -0.018755 0.461940
-0.234564 -0.023103 0.440961
-0.276448 -0.027228 0.415735
-0.315669 -0.031091 0.386505
-0.351851 -0.034655 0.353553
-0.384644 -0.037885 0.317197
-0.413733 -0.040750 0.277785
-0.438837 -0.043222 0.235698
-0.459715 -0.045278 0.191342
-0.476166 -0.046899 0.145142
-0.488032 -0.048067 0.097545
-0.495196 -0.048773 0.049009
-0.497593 -0.049009 -0.000000
-0.495196 -0.048773 -0.049009
-0.488032 -0.048067 -0.097545
-0.476166 -0.046899 -0.145142
-0.459715 -0.045278 -0.191342
-0.438837 -0.043222 -0.235699
-0.413733 -0.040749 -0.277785
-0.384644 -0.037884 -0.317197
-0.351851 -0.034655 -0.353554
-0.315669 -0.031091 -0.386505
-0.276448 -0.027228 -0.415735
-0.234563 -0.023103 -0.440961
-0.190420 -0.018755 -0.461940
-0.144443 -0.014227 -0.478470
-0.097075 -0.009561 -0.490393
-0.048773 -0.004804 -0.497592
-0.049009 -0.000000 0.497592
-0.097546 -0.000000 0.490393
-0.145143 -0.000000 0.478470
-0.191342 -0.000000 0.461940
-0.235699 -0.000000 0.440961
-0.277785 -0.000000 0.415735
-0.317197 -0.000000 0.386505
-0.353554 -0.000000 0.353553
-0.386505 -0.000000 0.317197
-0.415735 -0.000000 0.277785
-0.440961 -0.000000 0.235698
-0.461940 -0.000000 0.191342
-0.478470 -0.000000 0.145142
-0.490393 -0.000000 0.097545
-0.497592 -0.000000 0.049009
-0.500000 -0.000000 -0.000000
-0.497592 -0.000000 -0.049009
-0.490393 -0.000000 -0.097545
-0.478470 -0.000000 -0.145142
-0.461940 -0.000000 -0.191342
-0.440961 -0.000000 -0.235699
-0.415735 -0.000000 -0.277785
-0.386505 -0.000000 -0.317197
-0.353553 -0.000000 -0.353554
-0.317197 -0.000000 -0.386505
-0.277785 -0.000000 -0.415735
-0.235698 -0.000000 -0.440961
-0.191342 -0.000000 -0.461940
-0.145142 -0.000000 -0.478470
-0.097545 -0.000000 -0.490393
-0.049009 -0.000000 -0.497592
-0.048773 0.004803 0.497592
-0.097076 0.009561 0.490393
-0.144444 0.014226 0.478470
-0.190421 0.018754 0.461940
-0.234564 0.023102 0.440961
-0.276448 0.027227 0.415735
-0.315669 0.031090 0.386505
-0.351851 0.034654 0.353553
-0.384644 0.037884 0.317197
-0.413733 0.040749 0.277785
-0.438837 0.043221 0.235698
-0.459715 0.045278 0.191342
-0.476166 0.046898 0.145142
-0.488032 0.048066 0.097545
-0.495196 0.048772 0.049009
-0.497592 0.049008 -0.000000
-0.495196 0.048772 -0.049009
-0.488032 0.048066 -0.097545
-0.476166 0.046898 -0.145142
-0.459715 0.045278 -0.191342
-0.438837 0.043221 -0.235699
-0.413733 0.040749 -0.277785
-0.384644 0.037884 -0.317197
-0.351851 0.034654 -0.353554
-0.315669 0.031090 -0.386505
-0.276448 0.027227 -0.415735
-0.234563 0.023102 -0.440961
-0.190420 0.018754 -0.461940
-0.144443 0.014226 -0.478470
-0.097075 0.009561 -0.490393
-0.048773 0.004803 -0.497592
-0.048067 0.009561 0.497592
-0.095671 0.019030 0.490393
-0.142354 0.028316 0.478470
-0.187665 0.037329 0.461940
-0.231170 0.045982 0.440961
-0.272448 0.054193 0.415735
-0.311102 0.061882 0.386505
-0.346760 0.068975 0.353553
-0.379079 0.075403 0.317197
-0.407747 0.081106 0.277785
-0.432488 0.086027 0.235698
-0.453064 0.090120 0.191342
-0.469277 0.093345 0.145142
-0.480970 0.095670 0.097545
-0.488031 0.097075 0.049009
-0.490393 0.097545 -0.000000
-0.488031 0.097075 -0.049009
-0.480970 0.095670 -0.097545
-0.469277 0.093345 -0.145142
-0.453064 0.090120 -0.191342
-0.432488 0.086027 -0.235699
-0.407747 0.081106 -0.277785
-0.379079 0.075403 -0.317197
-0.346760 0.068974 -0.353554
-0.311102 0.061882 -0.386505
-0.272448 0.054193 -0.415735
-0.231170 0.045982 -0.440961
-0.187665 0.037328 -0.461940
-0.142354 0.028315 -0.478470
-0.095671 0.019030 -0.490393
-0.048067 0.009561 -0.497592
-0.046899 0.014226 0.497592
-0.093345 0.028316 0.490393
-0.138893 0.042132 0.478470
-0.183103 0.055543 0.461940
-0.225550 0.068419 0.440961
-0.265824 0.080636 0.415735
-0.303538 0.092077 0.386505
-0.338330 0.102631 0.353553
-0.369863 0.112196 0.317197
-0.397833 0.120681 0.277785
-0.421973 0.128004 0.235698
-0.442049 0.134094 0.191342
-0.457868 0.138892 0.145142
-0.469277 0.142353 0.097545
-0.476166 0.144443 0.049009
-0.478470 0.145142 -0.000000
-0.476166 0.144443 -0.049009
-0.469277 0.142353 -0.097545
-0.457867 0.138892 -0.145142
-0.442049 0.134094 -0.191342
-0.421973 0.128004 -0.235699
-0.397833 0.120681 -0.277785
-0.369862 0.112196 -0.317197
-0.338330 0.102631 -0.353554
-0.303538 0.092077 -0.386505
-0.265824 0.080636 -0.415735
-0.225549 0.068419 -0.440961
-0.183103 0.055543 -0.461940
-0.138893 0.042132 -0.478470
-0.093345 0.028315 -0.490393
-0.046898 0.014226 -0.497592
-0.045278 0.018755 0.497592
-0.090120 0.037329 0.490393
-0.134094 0.055543 0.478470
-0.176777 0.073223 0.461940
-0.217757 0.090198 0.440961
-0.256640 0.106304 0.415735
-0.293052 0.121386 0.386505
-0.326641 0.135299 0.353553
-0.357084 0.147909 0.317197
-0.384089 0.159095 0.277785
-0.407395 0.168748 0.235698
-0.426777 0.176776 0.191342
-0.442049 0.183102 0.145142
-0.453064 0.187665 0.097545
-0.459715 0.190420 0.049009
-0.461940 0.191341 -0.000000
-0.459715 0.190420 -0.049009
-0.453064 0.187665 -0.097545
-0.442049 0.183102 -0.145142
-0.426777 0.176776 -0.191342
-0.407395 0.168748 -0.235699
-0.384089 0.159094 -0.277785
-0.357084 0.147909 -0.317197
-0.326641 0.135299 -0.353554
-0.293051 0.121385 -0.386505
-0.256640 0.106303 -0.415735
-0.217757 0.090197 -0.440961
-0.176777 0.073223 -0.461940
-0.134094 0.055543 -0.478470
-0.090120 0.037329 -0.490393
-0.045278 0.018754 -0.497592
-0.043222 0.023102 0.497592
-0.086027 0.045982 0.490393
-0.128004 0.068419 0.478470
-0.168749 0.090198 0.461940
-0.207868 0.111107 0.440961
-0.244985 0.130947 0.415735
-0.279743 0.149525 0.386505
-0.311807 0.166664 0.353553
-0.340867 0.182197 0.317197
-0.366645 0.195976 0.277785
-0.388893 0.207867 0.235698
-0.407395 0.217757 0.191342
-0.421973 0.225549 0.145142
-0.432488 0.231169 0.097545
-0.438837 0.234563 0.049009
-0.440961 0.235698 -0.000000
-0.438837 0.234563 -0.049009
-0.432488 0.231169 -0.097545
-0.421973 0.225549 -0.145142
-0.407395 0.217756 -0.191342
-0.388893 0.207867 -0.235699
-0.366645 0.195976 -0.277785
-0.340867 0.182197 -0.317197
-0.311806 0.166664 -0.353554
-0.279742 0.149525 -0.386505
-0.244985 0.130947 -0.415735
-0.207867 0.111107 -0.440961
-0.168748 0.090197 -0.461940
-0.128004 0.068419 -0.478470
-0.086027 0.045982 -0.490393
-0.043222 0.023102 -0.497592
-0.040749 0.027228 0.497592
-0.081106 0.054193 0.490393
-0.120682 0.080637 0.478470
-0.159095 0.106304 0.461940
-0.195976 0.130947 0.440961
-0.230970 0.154329 0.415735
-0.263740 0.176225 0.386505
-0.293969 0.196424 0.353553
-0.321368 0.214731 0.317197
-0.345671 0.230970 0.277785
-0.366646 0.244984 0.235698
-0.384089 0.256640 0.191342
-0.397834 0.265824 0.145142
-0.407747 0.272447 0.097545
-0.413733 0.276447 0.049009
-0.415735 0.277785 -0.000000
-0.413733 0.276447 -0.049009
-0.407747 0.272447 -0.097545
-0.397833 0.265823 -0.145142
-0.384089 0.256640 -0.191342
-0.366645 0.244984 -0.235699
-0.345671 0.230970 -0.277785
-0.321367 0.214730 -0.317197
-0.293969 0.196423 -0.353554
-0.263739 0.176225 -0.386505
-0.230970 0.154329 -0.415735
-0.195976 0.130947 -0.440961
-0.159095 0.106303 -0.461940
-0.120681 0.080636 -0.478470
-0.081106 0.054193 -0.490393
-0.040749 0.027227 -0.497592
-0.037884 0.031091 0.497592
-0.075404 0.061882 0.490393
-0.112197 0.092077 0.478470
-0.147909 0.121386 0.461940
-0.182197 0.149525 0.440961
-0.214731 0.176225 0.415735
-0.245196 0.201227 0.386505
-0.273301 0.224292 0.353553
-0.298773 0.245196 0.317197
-0.321367 0.263739 0.277785
-0.340867 0.279742 0.235698
-0.357084 0.293051 0.191342
-0.369863 0.303538 0.145142
-0.379079 0.311102 0.097545
-0.384644 0.315669 0.049009
-0.386505 0.317196 -0.000000
-0.384644 0.315669 -0.049009
-0.379079 0.311102 -0.097545
-0.369862 0.303538 -0.145142
-0.357084 0.293051 -0.191342
-0.340867 0.279742 -0.235699
-0.321367 0.263739 -0.277785
-0.298773 0.245196 -0.317197
-0.273301 0.224292 -0.353554
-0.245196 0.201227 -0.386505
-0.214731 0.176225 -0.415735
-0.182197 0.149525 -0.440961
-0.147909 0.121385 -0.461940
-0.112197 0.092077 -0.478470
-0.075403 0.061882 -0.490393
-0.037884 0.031090 -0.497592
-0.034655 0.034654 0.497592
-0.068975 0.068975 0.490393
-0.102631 0.102631 0.478470
-0.135299 0.135299 0.461940
-0.166664 0.166664 0.440961
-0.196424 0.196424 0.415735
-0.224292 0.224292 0.386505
-0.250000 0.250000 0.353553
-0.273301 0.273300 0.317197
-0.293969 0.293969 0.277785
-0.311806 0.311806 0.235698
-0.326641 0.326640 0.191342
-0.338330 0.338329 0.145142
-0.346760 0.346760 0.097545
-0.351851 0.351851 0.049009
-0.353553 0.353553 -0.000000
-0.351851 0.351851 -0.049009
-0.346760 0.346760 -0.097545
-0.338330 0.338329 -0.145142
-0.326641 0.326640 -0.191342
-0.311806 0.311806 -0.235699
-0.293969 0.293969 -0.277785
-0.273300 0.273300 -0.317197
-0.250000 0.250000 -0.353554
-0.224292 0.224291 -0.386505
-0.196424 0.196423 -0.415735
-0.166664 0.166664 -0.440961
-0.135299 0.135299 -0.461940
-0.102631 0.102631 -0.478470
-0.068975 0.068974 -0.490393
-0.034654 0.034654 -0.497592
-0.031091 0.037884 0.497592
-0.061882 0.075403 0.490393
-0.092078 0.112196 0.478470
-0.121386 0.147909 0.461940
-0.149526 0.182197 0.440961
-0.176225 0.214731 0.415735
-0.201228 0.245196 0.386505
-0.224292 0.273300 0.353553
-0.245196 0.298772 0.317197
-0.263739 0.321367 0.277785
-0.279743 0.340867 0.235698
-0.293052 0.357084 0.191342
-0.303538 0.369862 0.145142
-0.311102 0.379078 0.097545
-0.315669 0.384644 0.049009
-0.317197 0.386505 -0.000000
-0.315669 0.384644 -0.049009
-0.311102 0.379078 -0.097545
-0.303538 0.369862 -0.145142
-0.293052 0.357084 -0.191342
-0.279743 0.340867 -0.235699
-0.263739 0.321367 -0.277785
-0.245196 0.298772 -0.317197
-0.224292 0.273300 -0.353554
-0.201227 0.245196 -0.386505
-0.176225 0.214731 -0.415735
-0.149525 0.182197 -0.440961
-0.121386 0.147909 -0.461940
-0.092077 0.112196 -0.478470
-0.061882 0.075403 -0.490393
-0.031091 0.037884 -0.497592
-0.027228 0.040749 0.497592
-0.054193 0.081106 0.490393
-0.080637 0.120681 0.478470
-0.106304 0.159095 0.461940
-0.130947 0.195976 0.440961
-0.154329 0.230970 0.415735
-0.176225 0.263739 0.386505
-0.196424 0.293969 0.353553
-0.214731 0.321367 0.317197
-0.230970 0.345671 0.277785
-0.244985 0.366645 0.235698
-0.256640 0.384089 0.191342
-0.265824 0.397833 0.145142
-0.272448 0.407746 0.097545
-0.276448 0.413733 0.049009
-0.277785 0.415734 -0.000000
-0.276448 0.413733 -0.049009
-0.272448 0.407746 -0.097545
-0.265824 0.397833 -0.145142
-0.256640 0.384089 -0.191342
-0.244985 0.366645 -0.235699
-0.230970 0.345671 -0.277785
-0.214731 0.321367 -0.317197
-0.196424 0.293969 -0.353554
-0.176225 0.263739 -0.386505
-0.154329 0.230970 -0.415735
-0.130947 0.195976 -0.440961
-0.106304 0.159094 -0.461940
-0.080637 0.120681 -0.478470
-0.054193 0.081105 -0.490393
-0.027228 0.040749 -0.497592
-0.023103 0.043222 0.497592
-0.045983 0.086027 0.490393
-0.068420 0.128004 0.478470
-0.090198 0.168748 0.461940
-0.111108 0.207867 0.440961
-0.130947 0.244985 0.415735
-0.149526 0.279742 0.386505
-0.166664 0.311806 0.353553
-0.182197 0.340867 0.317197
-0.195976 0.366645 0.277785
-0.207868 0.388892 0.235698
-0.217757 0.407394 0.191342
-0.225549 0.421973 0.145142
-0.231170 0.432488 0.097545
-0.234563 0.438837 0.049009
-0.235698 0.440960 -0.000000
-0.234563 0.438837 -0.049009
-0.231170 0.432488 -0.097545
-0.225549 0.421973 -0.145142
-0.217757 0.407394 -0.191342
-0.207867 0.388892 -0.235699
-0.195976 0.366645 -0.277785
-0.182197 0.340867 -0.317197
-0.166664 0.311806 -0.353554
-0.149525 0.279742 -0.386505
-0.130947 0.244984 -0.415735
-0.111107 0.207867 -0.440961
-0.090198 0.168748 -0.461940
-0.068420 0.128004 -0.478470
-0.045982 0.086027 -0.490393
-0.023102 0.043221 -0.497592
-0.018755 0.045278 0.497592
-0.037329 0.090120 0.490393
-0.055544 0.134094 0.478470
-0.073223 0.176777 0.461940
-0.090198 0.217757 0.440961
-0.106304 0.256640 0.415735
-0.121386 0.293051 0.386505
-0.135299 0.326641 0.353553
-0.147909 0.357084 0.317197
-0.159095 0.384089 0.277785
-0.168748 0.407394 0.235698
-0.176777 0.426776 0.191342
-0.183103 0.442049 0.145142
-0.187665 0.453064 0.097545
-0.190420 0.459715 0.049009
-0.191342 0.461939 -0.000000
-0.190420 0.459715 -0.049009
-0.187665 0.453064 -0.097545
-0.183103 0.442048 -0.145142
-0.176777 0.426776 -0.191342
-0.168748 0.407394 -0.235699
-0.159095 0.384089 -0.277785
-0.147909 0.357084 -0.317197
-0.135299 0.326640 -0.353554
-0.121386 0.293051 -0.386505
-0.106304 0.256640 -0.415735
-0.090198 0.217756 -0.440961
-0.073223 0.176776 -0.461940
-0.055544 0.134094 -0.478470
-0.037329 0.090120 -0.490393
-0.018755 0.045278 -0.497592
-0.014227 0.046898 0.497592
-0.028316 0.093345 0.490393
-0.042133 0.138893 0.478470
-0.055544 0.183102 0.461940
-0.068420 0.225549 0.440961
-0.080637 0.265824 0.415735
-0.092077 0.303538 0.386505
-0.102631 0.338329 0.353553
-0.112197 0.369862 0.317197
-0.120681 0.397833 0.277785
-0.128004 0.421973 0.235698
-0.134094 0.442048 0.191342
-0.138893 0.457867 0.145142
-0.142354 0.469277 0.097545
-0.144443 0.476166 0.049009
-0.145142 0.478470 -0.000000
-0.144443 0.476166 -0.049009
-0.142354 0.469277 -0.097545
-0.138893 0.457867 -0.145142
-0.134094 0.442048 -0.191342
-0.128004 0.421973 -0.235699
-0.120681 0.397833 -0.277785
-0.112196 0.369862 -0.317197
-0.102631 0.338329 -0.353554
-0.092077 0.303538 -0.386505
-0.080637 0.265824 -0.415735
-0.068420 0.225549 -0.440961
-0.055544 0.183102 -0.461940
-0.042133 0.138892 -0.478470
-0.028316 0.093344 -0.490393
-0.014226 0.046898 -0.497592
-0.009561 0.048067 0.497592
-0.019030 0.095671 0.490393
-0.028316 0.142353 0.478470
-0.037329 0.187665 0.461940
-0.045982 0.231169 0.440961
-0.054193 0.272448 0.415735
-0.061882 0.311102 0.386505
-0.068975 0.346760 0.353553
-0.075403 0.379078 0.317197
-0.081106 0.407746 0.277785
-0.086027 0.432487 0.235698
-0.090120 0.453063 0.191342
-0.093345 0.469276 0.145142
-0.095671 0.480970 0.097545
-0.097075 0.488031 0.049009
-0.097545 0.490392 -0.000000
-0.097075 0.488031 -0.049009
-0.095671 0.480970 -0.097545
-0.093345 0.469276 -0.145142
-0.090120 0.453063 -0.191342
-0.086027 0.432487 -0.235699
-0.081106 0.407746 -0.277785
-0.075403 0.379078 -0.317197
-0.068975 0.346760 -0.353554
-0.061882 0.311101 -0.386505
-0.054193 0.272447 -0.415735
